0.57587 0.64560 0.70117 0.73662 0.74963 0.74185 0.71763 0.68441 0.65217 0.62964 0.62205 0.63055 0.65223 0.68104 0.70923 0.72924 0.73555 0.72602 0.70224 0.66852 0.62935 0.59315 0.57140 0.57227 0.59739 0.64172 0.69523 0.74549 0.78043 0.79068 0.77121 0.72230 0.64949 0.56145 0.46687 0.37462 0.29593 0.24103 0.21544 0.21825 0.24283 0.27863 0.31378 0.33797 0.34523 0.33756 0.32536 0.32196 0.33635 0.37105 0.42473 0.49337 0.57161 0.65214 0.72567 0.78229 0.81366 0.81611 0.79541 0.76602 0.74264 0.73263 0.73642 0.74958 0.76425 0.77107 0.76121 0.72842 0.67058 0.59071 0.49694 0.40062 0.31130 0.23415 0.17216 0.12752 0.10146 0.09358 0.10141 0.12058 0.14594 0.17307 0.19990 0.22706 0.25528 0.28332 0.30661 0.32384 0.33800 0.35251 0.36928 0.38860 0.40953 0.43035 0.44919 0.46439 0.47497 0.47999 0.47827 0.46931 0.45344 0.43149 0.40463 0.37439 0.34249 0.31012 0.27798 0.24678 0.21829 0.19506 0.17980 0.17471 0.18059 0.19768 0.22544 0.26208 0.30463 0.34955 0.39368 0.43539 0.47508 0.51441 0.55337 0.59183 0.63374 0.68220 0.73644 0.79168 0.84065 0.87567 0.89050 0.88159 0.84851 0.79362 0.72002 0.63143 0.53523 0.44321 0.36827 0.32185 0.31162 0.33979 0.40265 0.49135 0.59303 0.69317 0.77938 0.84593 0.89294 0.92269 0.93582 0.93330 0.91776 0.89321 0.86403 0.83384 0.80442 0.77472 0.74204 0.70536 0.66388 0.61691 0.56709 0.51928 0.47899 0.45110 0.43864 0.44236 0.46071 0.49046 0.52760 0.56815 0.60857 0.64651 0.67915 0.69976 0.70135 0.68040 0.63839 0.58145
0.55312 0.62831 0.69241 0.73983 0.76801 0.77700 0.76926 0.75015 0.72820 0.71156 0.70558 0.71219 0.72969 0.75330 0.77659 0.79307 0.79756 0.78772 0.76486 0.73206 0.69294 0.65619 0.63286 0.63061 0.65069 0.68794 0.73251 0.77239 0.79610 0.79498 0.76473 0.70611 0.62484 0.53063 0.43411 0.34632 0.27934 0.24199 0.23707 0.26081 0.30384 0.35327 0.39557 0.41957 0.41918 0.39620 0.36207 0.33291 0.32139 0.33310 0.36959 0.43022 0.51104 0.60359 0.69565 0.77329 0.82439 0.84206 0.82922 0.79912 0.76775 0.74550 0.73479 0.73313 0.73451 0.73109 0.71495 0.68004 0.62386 0.54861 0.46108 0.37126 0.28819 0.21781 0.16385 0.12860 0.11288 0.11564 0.13371 0.16212 0.19529 0.22867 0.26039 0.29185 0.32553 0.36026 0.39141 0.41842 0.44338 0.46797 0.49245 0.51572 0.53588 0.55091 0.55916 0.55961 0.55188 0.53574 0.51101 0.47860 0.44078 0.40020 0.35973 0.32228 0.28957 0.26154 0.23676 0.21353 0.19176 0.17258 0.15792 0.15059 0.15191 0.16219 0.18126 0.20797 0.24015 0.27509 0.31039 0.34503 0.37988 0.41698 0.45691 0.50051 0.55091 0.61006 0.67598 0.74273 0.80193 0.84496 0.86489 0.85792 0.82384 0.76577 0.68895 0.59909 0.50407 0.41505 0.34412 0.30197 0.29575 0.32756 0.39391 0.48577 0.58998 0.69189 0.77879 0.84485 0.89129 0.92238 0.94039 0.94619 0.94149 0.92873 0.91082 0.89048 0.86842 0.84307 0.81290 0.77779 0.73598 0.68487 0.62517 0.56192 0.50176 0.45127 0.41561 0.39760 0.39736 0.41265 0.43976 0.47457 0.51328 0.55202 0.58480 0.60314 0.60034 0.57425 0.52802 0.46930
0.55883 0.63212 0.69779 0.75076 0.78768 0.80743 0.81104 0.80184 0.78658 0.77264 0.76534 0.76748 0.77868 0.79566 0.81322 0.82508 0.82617 0.81467 0.79175 0.75947 0.72119 0.68551 0.66279 0.65986 0.67736 0.70978 0.74727 0.77826 0.79199 0.78075 0.74127 0.67526 0.58898 0.49210 0.39633 0.31537 0.26186 0.24323 0.25988 0.30518 0.36704 0.43032 0.47992 0.50397 0.49655 0.45966 0.40503 0.35079 0.31259 0.29921 0.31655 0.36740 0.44851 0.54997 0.65656 0.75109 0.81842 0.84892 0.84260 0.81108 0.77104 0.73588 0.71062 0.69486 0.68458 0.67345 0.65452 0.62235 0.57416 0.51052 0.43592 0.35819 0.28524 0.22370 0.17812 0.15146 0.14489 0.15719 0.18477 0.22217 0.26338 0.30355 0.34066 0.37625 0.41356 0.45204 0.48839 0.52277 0.55627 0.58886 0.61902 0.64421 0.66164 0.66901 0.66499 0.64926 0.62230 0.58483 0.53778 0.48357 0.42640 0.37090 0.32204 0.28344 0.25592 0.23736 0.22356 0.21040 0.19590 0.17994 0.16373 0.15050 0.14292 0.14186 0.14788 0.16089 0.17992 0.20342 0.22992 0.25905 0.29177 0.32906 0.37060 0.41914 0.47805 0.54742 0.62377 0.70013 0.76741 0.81644 0.83993 0.83387 0.79823 0.73672 0.65586 0.56348 0.46836 0.38124 0.31328 0.27427 0.27092 0.30525 0.37353 0.46657 0.57137 0.67356 0.76061 0.82636 0.87269 0.90538 0.92817 0.94182 0.94705 0.94526 0.93883 0.92902 0.91491 0.89473 0.86804 0.83468 0.79242 0.73774 0.66969 0.59285 0.51495 0.44420 0.38761 0.34980 0.33235 0.33396 0.35125 0.37993 0.41580 0.45463 0.48831 0.50650 0.50252 0.47532 0.42928 0.37310
0.58965 0.65488 0.71549 0.76664 0.80475 0.82810 0.83678 0.83248 0.81983 0.80511 0.79355 0.78878 0.79194 0.80116 0.81142 0.81661 0.81269 0.79861 0.77524 0.74421 0.70873 0.67670 0.65760 0.65731 0.67572 0.70685 0.74077 0.76619 0.77305 0.75460 0.70869 0.63810 0.54996 0.45415 0.36231 0.28942 0.24903 0.24770 0.28388 0.34855 0.42724 0.50281 0.55882 0.58285 0.56933 0.52107 0.44979 0.37435 0.31229 0.27586 0.27559 0.31670 0.39611 0.50228 0.61787 0.72350 0.80181 0.84103 0.83868 0.80450 0.75543 0.70734 0.66810 0.63951 0.61952 0.60345 0.58615 0.56275 0.52917 0.48357 0.42769 0.36661 0.30672 0.25513 0.21779 0.19829 0.19833 0.21716 0.25139 0.29550 0.34327 0.38954 0.43194 0.47144 0.51066 0.54939 0.58699 0.62460 0.66256 0.69935 0.73187 0.75630 0.76904 0.76758 0.75082 0.71908 0.67376 0.61669 0.55003 0.47779 0.40605 0.34192 0.29192 0.25937 0.24329 0.23876 0.23882 0.23705 0.22966 0.21559 0.19565 0.17350 0.15344 0.13750 0.12728 0.12406 0.12838 0.14021 0.15970 0.18713 0.22231 0.26339 0.30809 0.35981 0.42361 0.49943 0.58247 0.66474 0.73669 0.78894 0.81408 0.80800 0.77066 0.70600 0.62130 0.52590 0.42994 0.34398 0.27829 0.24187 0.24067 0.27603 0.34396 0.43549 0.53811 0.63823 0.72408 0.78924 0.83565 0.87002 0.89704 0.91733 0.93110 0.94002 0.94540 0.94651 0.94110 0.92760 0.90539 0.87390 0.83106 0.77317 0.69847 0.61067 0.51826 0.43078 0.35684 0.30260 0.27088 0.26117 0.27015 0.29294 0.32481 0.36126 0.39417 0.41315 0.41114 0.38738 0.34686 0.29862
0.63886 0.69122 0.74054 0.78273 0.81460 0.83440 0.84179 0.83743 0.82366 0.80524 0.78710 0.77373 0.76776 0.76771 0.76852 0.76528 0.75536 0.73832 0.71495 0.68699 0.65726 0.63231 0.62045 0.62660 0.64991 0.68384 0.71827 0.74212 0.74588 0.72366 0.67449 0.60261 0.51609 0.42498 0.34081 0.27794 0.24942 0.26180 0.31268 0.39159 0.48246 0.56678 0.62715 0.65077 0.63238 0.57582 0.49340 0.40335 0.32353 0.26963 0.25557 0.28790 0.36331 0.46952 0.58810 0.69834 0.78142 0.82426 0.82261 0.78427 0.72605 0.66561 0.61349 0.57362 0.54602 0.52877 0.51834 0.50929 0.49560 0.47280 0.43946 0.39763 0.35206 0.30990 0.27885 0.26374 0.26698 0.28850 0.32549 0.37290 0.42470 0.47565 0.52286 0.56639 0.60717 0.64427 0.67956 0.71565 0.75273 0.78842 0.81863 0.83877 0.84483 0.83409 0.80547 0.75960 0.69854 0.62524 0.54324 0.45819 0.37841 0.31334 0.26997 0.25029 0.25072 0.26358 0.27942 0.28955 0.28843 0.27448 0.24869 0.21539 0.18050 0.14768 0.11977 0.09961 0.08965 0.09241 0.10950 0.14057 0.18273 0.23037 0.27918 0.33205 0.39522 0.47041 0.55298 0.63486 0.70634 0.75801 0.78246 0.77553 0.73697 0.67061 0.58385 0.48680 0.39091 0.30687 0.24406 0.21020 0.21012 0.24455 0.30940 0.39616 0.49322 0.58821 0.67061 0.73434 0.78077 0.81672 0.84715 0.87251 0.89394 0.91320 0.93012 0.94227 0.94678 0.94134 0.92427 0.89469 0.85118 0.79053 0.71092 0.61539 0.51264 0.41319 0.32679 0.26076 0.21881 0.20052 0.20216 0.21855 0.24483 0.27649 0.30581 0.32411 0.32519 0.30813 0.27756 0.24209
0.69658 0.73263 0.76581 0.79330 0.81281 0.82306 0.82371 0.81496 0.79734 0.77349 0.74773 0.72532 0.70965 0.69883 0.68875 0.67624 0.66000 0.64023 0.61821 0.59582 0.57523 0.56116 0.56033 0.57671 0.60875 0.64935 0.68811 0.71406 0.71816 0.69575 0.64753 0.57861 0.49738 0.41386 0.33938 0.28750 0.26956 0.29143 0.35067 0.43675 0.53324 0.62118 0.68286 0.70543 0.68389 0.62268 0.53488 0.43793 0.34849 0.28431 0.26092 0.28556 0.35518 0.45739 0.57338 0.68190 0.76354 0.80463 0.80016 0.75621 0.68900 0.61731 0.55374 0.50427 0.47202 0.45783 0.45866 0.46791 0.47746 0.47999 0.47058 0.44828 0.41619 0.38136 0.35306 0.33809 0.33987 0.35934 0.39467 0.44163 0.49477 0.54916 0.60188 0.65155 0.69590 0.73245 0.76426 0.79510 0.82595 0.85465 0.87705 0.88850 0.88508 0.86426 0.82512 0.76826 0.69561 0.61067 0.51844 0.42650 0.34573 0.28697 0.25657 0.25445 0.27460 0.30681 0.33916 0.36082 0.36464 0.34878 0.31521 0.26936 0.21880 0.16893 0.12396 0.08855 0.06818 0.06758 0.08836 0.12814 0.18017 0.23555 0.28806 0.33939 0.39627 0.46299 0.53660 0.60990 0.67398 0.71999 0.74080 0.73218 0.69358 0.62834 0.54353 0.44927 0.35716 0.27764 0.21894 0.18740 0.18681 0.21747 0.27562 0.35363 0.44122 0.52746 0.60336 0.66402 0.71010 0.74746 0.78038 0.80982 0.83828 0.86722 0.89526 0.91909 0.93458 0.93784 0.92612 0.89831 0.85393 0.79101 0.70821 0.60832 0.49986 0.39381 0.30058 0.22801 0.17972 0.15498 0.14997 0.15958 0.17918 0.20438 0.22810 0.24349 0.24631 0.23604 0.21690 0.19648
0.75176 0.76953 0.78358 0.79271 0.79589 0.79260 0.78280 0.76650 0.74343 0.71391 0.68114 0.65073 0.62551 0.60371 0.58272 0.56113 0.53901 0.51764 0.49889 0.48461 0.47630 0.47657 0.49016 0.51994 0.56375 0.61394 0.65983 0.69054 0.69825 0.67999 0.63717 0.57501 0.50185 0.42745 0.36262 0.32017 0.30998 0.33674 0.39819 0.48438 0.57959 0.66558 0.72520 0.74607 0.72348 0.66193 0.57419 0.47673 0.38512 0.31735 0.28923 0.30827 0.37161 0.46707 0.57605 0.67754 0.75229 0.78680 0.77611 0.72536 0.64973 0.56827 0.49491 0.43814 0.40467 0.39702 0.41196 0.44163 0.47569 0.50355 0.51697 0.51220 0.49085 0.45985 0.42982 0.40991 0.40503 0.41745 0.44666 0.48969 0.54253 0.60142 0.66270 0.72201 0.77280 0.81089 0.83951 0.86361 0.88488 0.90210 0.91213 0.91114 0.89581 0.86411 0.81542 0.75038 0.67067 0.57935 0.48212 0.38885 0.31273 0.26501 0.25097 0.26868 0.30980 0.36164 0.40991 0.44186 0.44902 0.42932 0.38642 0.32753 0.26196 0.19674 0.13754 0.09185 0.06790 0.07099 0.10129 0.15301 0.21574 0.27837 0.33280 0.37920 0.42450 0.47545 0.53219 0.58930 0.63939 0.67483 0.68918 0.67839 0.64173 0.58225 0.50607 0.42175 0.33928 0.26794 0.21488 0.18520 0.18183 0.20496 0.25151 0.31534 0.38808 0.46092 0.52665 0.58157 0.62634 0.66489 0.69982 0.73320 0.76851 0.80700 0.84665 0.88273 0.90937 0.92119 0.91454 0.88811 0.84248 0.77752 0.69297 0.59172 0.48197 0.37464 0.28009 0.20567 0.15444 0.12550 0.11516 0.11868 0.13154 0.14956 0.16657 0.17731 0.17982 0.17445 0.16511 0.15845
0.79448 0.79329 0.78706 0.77636 0.76167 0.74337 0.72169 0.69650 0.66721 0.63300 0.59544 0.55940 0.52643 0.49529 0.46493 0.43571 0.40934 0.38821 0.37470 0.37057 0.37670 0.39374 0.42408 0.46928 0.52659 0.58783 0.64208 0.67947 0.69409 0.68367 0.64949 0.59652 0.53283 0.46754 0.41061 0.37405 0.36683 0.39254 0.44946 0.52889 0.61661 0.69581 0.75063 0.76956 0.74826 0.69065 0.60794 0.51421 0.42520 0.35937 0.33141 0.34809 0.40635 0.49421 0.59363 0.68440 0.74825 0.77251 0.75286 0.69449 0.61140 0.52204 0.44098 0.37992 0.34834 0.34964 0.38026 0.43084 0.48833 0.53913 0.57206 0.58097 0.56618 0.53463 0.49819 0.46838 0.45200 0.45295 0.47244 0.50987 0.56351 0.62983 0.70311 0.77473 0.83427 0.87579 0.90192 0.91866 0.92931 0.93364 0.92969 0.91491 0.88710 0.84495 0.78819 0.71742 0.63405 0.54073 0.44303 0.35241 0.28391 0.24911 0.25233 0.28986 0.35111 0.42104 0.48329 0.52351 0.53232 0.50749 0.45443 0.38301 0.30444 0.22717 0.15894 0.11027 0.09045 0.10370 0.14722 0.21166 0.28427 0.35215 0.40572 0.44357 0.47269 0.50206 0.53556 0.57042 0.60146 0.62275 0.62898 0.61705 0.58670 0.53984 0.48019 0.41339 0.34665 0.28717 0.24123 0.21281 0.20427 0.21596 0.24587 0.28967 0.34147 0.39510 0.44577 0.49141 0.53291 0.57217 0.60949 0.64779 0.69107 0.74019 0.79193 0.84006 0.87720 0.89679 0.89449 0.86890 0.82138 0.75413 0.66859 0.56815 0.46066 0.35649 0.26510 0.19281 0.14209 0.11192 0.09888 0.09836 0.10560 0.11665 0.12653 0.13145 0.13146 0.12836 0.12579 0.12960
0.81748 0.79728 0.77114 0.74127 0.70954 0.67719 0.64465 0.61143 0.57644 0.53882 0.49960 0.46147 0.42436 0.38738 0.35094 0.31711 0.28912 0.27042 0.26381 0.27095 0.29216 0.32676 0.37460 0.43568 0.50651 0.57844 0.64101 0.68648 0.71002 0.70934 0.68532 0.64253 0.58819 0.53063 0.47871 0.44341 0.43326 0.45133 0.49659 0.56235 0.63662 0.70473 0.75263 0.76989 0.75192 0.70153 0.62765 0.54141 0.45840 0.39795 0.37419 0.39222 0.44797 0.52930 0.61875 0.69724 0.74795 0.75977 0.72963 0.66331 0.57419 0.47924 0.39345 0.33148 0.30465 0.31684 0.36362 0.43361 0.51137 0.58070 0.62810 0.64558 0.63249 0.59592 0.54898 0.50535 0.47391 0.46045 0.46895 0.50197 0.55901 0.63558 0.72272 0.80746 0.87680 0.92285 0.94718 0.95652 0.95642 0.94821 0.93124 0.90422 0.86593 0.81567 0.75336 0.67941 0.59487 0.50217 0.40726 0.32217 0.26254 0.24036 0.25937 0.31448 0.39323 0.47852 0.55211 0.59830 0.60721 0.57697 0.51426 0.43191 0.34340 0.25854 0.18786 0.14355 0.13417 0.16122 0.21870 0.29488 0.37516 0.44527 0.49468 0.52070 0.53023 0.53429 0.54050 0.54943 0.55853 0.56405 0.56298 0.55383 0.53584 0.50859 0.47236 0.42918 0.38301 0.33840 0.30043 0.27267 0.25691 0.25391 0.26297 0.28191 0.30758 0.33682 0.36767 0.40010 0.43561 0.47458 0.51548 0.56085 0.61391 0.67447 0.73810 0.79735 0.84375 0.86987 0.87090 0.84543 0.79542 0.72513 0.63840 0.53969 0.43660 0.33853 0.25358 0.18699 0.14063 0.11334 0.10159 0.10022 0.10400 0.10909 0.11194 0.11028 0.10584 0.10202 0.10249 0.11245
0.81853 0.77948 0.73461 0.68758 0.64139 0.59787 0.55737 0.51883 0.48041 0.44107 0.40266 0.36625 0.32967 0.29190 0.25427 0.22013 0.19387 0.17979 0.18112 0.19947 0.23479 0.28561 0.34980 0.42545 0.50810 0.58876 0.65880 0.71231 0.74492 0.75412 0.74037 0.70723 0.66082 0.60863 0.55840 0.51971 0.50076 0.50484 0.53188 0.57784 0.63361 0.68727 0.72666 0.74174 0.72787 0.68681 0.62458 0.54952 0.47631 0.42399 0.40674 0.42863 0.48435 0.56110 0.64167 0.70811 0.74529 0.74405 0.70312 0.62941 0.53619 0.43870 0.35223 0.29344 0.27442 0.29863 0.36037 0.44654 0.53970 0.62176 0.67755 0.69796 0.68184 0.63658 0.57644 0.51695 0.46898 0.44079 0.43998 0.47125 0.53413 0.62204 0.72225 0.81911 0.89772 0.94835 0.97131 0.97380 0.96366 0.94436 0.91664 0.88032 0.83494 0.78011 0.71561 0.64151 0.55836 0.46858 0.37877 0.30104 0.25058 0.23912 0.27036 0.33864 0.43045 0.52732 0.60962 0.66047 0.66939 0.63485 0.56488 0.47457 0.37974 0.29210 0.22466 0.18952 0.19307 0.23412 0.30427 0.38979 0.47453 0.54331 0.58526 0.59698 0.58519 0.56265 0.54040 0.52251 0.50939 0.50060 0.49610 0.49502 0.49506 0.49267 0.48425 0.46820 0.44525 0.41714 0.38743 0.35967 0.33545 0.31592 0.30180 0.29322 0.28993 0.29199 0.30041 0.31752 0.34566 0.38366 0.42899 0.48297 0.54676 0.61848 0.69248 0.76050 0.81359 0.84404 0.84690 0.82077 0.76790 0.69373 0.60485 0.50747 0.40930 0.31872 0.24259 0.18516 0.14767 0.12831 0.12249 0.12411 0.12726 0.12804 0.12438 0.11569 0.10524 0.09792 0.09766 0.10919
0.79914 0.74272 0.68143 0.62033 0.56332 0.51250 0.46787 0.42739 0.38814 0.34898 0.31266 0.28008 0.24839 0.21552 0.18262 0.15340 0.13278 0.12549 0.13511 0.16345 0.21038 0.27409 0.35149 0.43873 0.52997 0.61657 0.69224 0.75232 0.79280 0.81096 0.80625 0.78098 0.74016 0.69051 0.63885 0.59296 0.56055 0.54554 0.54939 0.57107 0.60494 0.64179 0.67054 0.68224 0.67268 0.64220 0.59363 0.53321 0.47376 0.43284 0.42429 0.45169 0.50871 0.58216 0.65508 0.71053 0.73508 0.72165 0.67103 0.59165 0.49698 0.40088 0.31846 0.26672 0.25747 0.29337 0.36756 0.46549 0.56829 0.65660 0.71445 0.73235 0.70931 0.65323 0.57931 0.50442 0.44113 0.40097 0.39427 0.42650 0.49606 0.59360 0.70416 0.81044 0.89625 0.95048 0.97211 0.96864 0.94988 0.92176 0.88634 0.84437 0.79586 0.74048 0.67779 0.60705 0.52816 0.44387 0.36091 0.29086 0.24844 0.24493 0.28387 0.35967 0.45877 0.56239 0.65034 0.70513 0.71578 0.68061 0.60806 0.51440 0.41701 0.33008 0.26825 0.24287 0.25841 0.31141 0.39129 0.48256 0.56794 0.63179 0.66339 0.65950 0.62662 0.57881 0.52991 0.48726 0.45484 0.43629 0.43354 0.44535 0.46713 0.49190 0.51257 0.52410 0.52429 0.51251 0.49069 0.46237 0.42941 0.39339 0.35638 0.32076 0.28916 0.26492 0.25258 0.25664 0.27909 0.31656 0.36585 0.42724 0.50021 0.58086 0.66217 0.73524 0.79102 0.82205 0.82381 0.79533 0.73918 0.66103 0.56899 0.47176 0.37786 0.29522 0.22992 0.18532 0.16140 0.15474 0.15929 0.16774 0.17335 0.17188 0.16254 0.14677 0.12932 0.11639 0.11221 0.12121
0.76310 0.69211 0.61803 0.54701 0.48355 0.42965 0.38417 0.34370 0.30491 0.26756 0.23503 0.20784 0.18374 0.16039 0.13777 0.11864 0.10744 0.10880 0.12644 0.16248 0.21722 0.28913 0.37492 0.46948 0.56531 0.65482 0.73373 0.79845 0.84508 0.87017 0.87213 0.85215 0.81428 0.76446 0.70890 0.65353 0.60506 0.56812 0.54617 0.54154 0.55197 0.56994 0.58624 0.59367 0.58832 0.56852 0.53505 0.49223 0.45016 0.42400 0.42653 0.46120 0.52096 0.59231 0.65876 0.70457 0.71812 0.69446 0.63651 0.55410 0.46064 0.36880 0.29340 0.25051 0.25101 0.29668 0.37973 0.48468 0.59170 0.68067 0.73524 0.74628 0.71380 0.64674 0.56093 0.47371 0.39925 0.35181 0.34291 0.37746 0.45208 0.55590 0.67278 0.78445 0.87409 0.92997 0.94985 0.94135 0.91588 0.88156 0.84171 0.79776 0.75011 0.69855 0.64183 0.57809 0.50677 0.43088 0.35615 0.29313 0.25605 0.25616 0.29736 0.37460 0.47495 0.58020 0.67056 0.72866 0.74335 0.71253 0.64395 0.55294 0.45638 0.37132 0.31447 0.29693 0.32162 0.38302 0.46859 0.56139 0.64342 0.69908 0.71826 0.69863 0.64683 0.57758 0.50660 0.44409 0.39822 0.37580 0.37957 0.40714 0.45136 0.50242 0.55021 0.58668 0.60723 0.60960 0.59444 0.56519 0.52430 0.47375 0.41684 0.35799 0.30286 0.25866 0.23252 0.22947 0.24955 0.28749 0.33957 0.40512 0.48245 0.56678 0.65020 0.72329 0.77699 0.80431 0.80142 0.76807 0.70748 0.62568 0.53092 0.43328 0.34314 0.26901 0.21651 0.18765 0.18065 0.19023 0.20862 0.22707 0.23789 0.23642 0.22263 0.20020 0.17554 0.15585 0.14566 0.14854
0.71585 0.63400 0.55148 0.47516 0.40959 0.35544 0.31020 0.27017 0.23279 0.19929 0.17292 0.15362 0.13939 0.12822 0.11907 0.11327 0.11390 0.12472 0.14923 0.18991 0.24784 0.32243 0.41099 0.50801 0.60471 0.69460 0.77473 0.84191 0.89205 0.92116 0.92687 0.90946 0.87213 0.82011 0.75912 0.69383 0.62923 0.57042 0.52308 0.49288 0.47971 0.47805 0.48126 0.48393 0.48181 0.47214 0.45455 0.43138 0.40947 0.40089 0.41671 0.46029 0.52423 0.59492 0.65650 0.69458 0.69942 0.66832 0.60605 0.52321 0.43251 0.34590 0.27803 0.24332 0.25136 0.30312 0.39030 0.49709 0.60342 0.68903 0.73758 0.74029 0.69818 0.62191 0.52821 0.43391 0.35418 0.30441 0.29581 0.33224 0.40936 0.51549 0.63391 0.74608 0.83527 0.88996 0.90722 0.89444 0.86415 0.82618 0.78480 0.74211 0.69924 0.65560 0.60871 0.55571 0.49591 0.43124 0.36583 0.30865 0.27338 0.27171 0.30854 0.38016 0.47509 0.57653 0.66584 0.72639 0.74717 0.72522 0.66634 0.58317 0.49076 0.40851 0.35531 0.34276 0.37299 0.43894 0.52648 0.61748 0.69336 0.73877 0.74470 0.71033 0.64332 0.55839 0.47198 0.39676 0.34446 0.32360 0.33674 0.38003 0.44448 0.51804 0.58815 0.64429 0.68006 0.69254 0.68187 0.65145 0.60438 0.54304 0.47171 0.39699 0.32810 0.27470 0.24466 0.24161 0.26300 0.30253 0.35579 0.42145 0.49729 0.57831 0.65667 0.72320 0.76929 0.78852 0.77777 0.73758 0.67183 0.58708 0.49174 0.39567 0.31015 0.24503 0.20590 0.19375 0.20510 0.23269 0.26682 0.29722 0.31522 0.31584 0.29936 0.27135 0.24014 0.21371 0.19650 0.19041
0.66352 0.57479 0.48821 0.41077 0.34553 0.29167 0.24645 0.20703 0.17270 0.14549 0.12800 0.11952 0.11770 0.12073 0.12663 0.13503 0.14746 0.16662 0.19558 0.23720 0.29360 0.36557 0.45172 0.54684 0.64163 0.73005 0.80929 0.87615 0.92640 0.95585 0.96183 0.94424 0.90565 0.85049 0.78380 0.70971 0.63146 0.55387 0.48473 0.43204 0.39709 0.37693 0.36749 0.36453 0.36424 0.36389 0.36215 0.35941 0.35917 0.36993 0.40066 0.45432 0.52357 0.59488 0.65323 0.68573 0.68486 0.64981 0.58639 0.50512 0.41764 0.33573 0.27370 0.24453 0.25602 0.30872 0.39437 0.49748 0.59855 0.67785 0.71962 0.71557 0.66726 0.58603 0.48945 0.39391 0.31451 0.26626 0.25950 0.29720 0.37427 0.47864 0.59363 0.70113 0.78515 0.83511 0.84830 0.83163 0.79812 0.75851 0.71779 0.67924 0.64449 0.61217 0.57874 0.54077 0.49634 0.44530 0.38993 0.33725 0.30013 0.29102 0.31658 0.37520 0.45766 0.54940 0.63373 0.69523 0.72259 0.71137 0.66517 0.59316 0.50826 0.43072 0.38133 0.37209 0.40482 0.47190 0.55834 0.64533 0.71407 0.74956 0.74373 0.69727 0.61952 0.52561 0.43135 0.35113 0.29857 0.28259 0.30531 0.36194 0.44211 0.53207 0.61747 0.68611 0.73034 0.74755 0.73838 0.70658 0.65582 0.58876 0.51074 0.43112 0.36112 0.31085 0.28694 0.29017 0.31626 0.35826 0.41090 0.47249 0.54105 0.61214 0.67872 0.73251 0.76587 0.77331 0.75257 0.70489 0.63473 0.54886 0.45549 0.36386 0.28470 0.22839 0.20149 0.20478 0.23364 0.27912 0.32960 0.37308 0.39968 0.40409 0.38710 0.35545 0.31930 0.28720 0.26273 0.24620
0.61161 0.51955 0.43252 0.35610 0.29140 0.23720 0.19164 0.15392 0.12502 0.10667 0.10061 0.10556 0.11841 0.13700 0.15867 0.18114 0.20426 0.22962 0.25998 0.29875 0.34942 0.41478 0.49505 0.58510 0.67572 0.76089 0.83714 0.90092 0.94783 0.97371 0.97604 0.95483 0.91265 0.85367 0.78222 0.70153 0.61388 0.52314 0.43842 0.36835 0.31554 0.27937 0.25787 0.24865 0.24923 0.25715 0.27023 0.28719 0.30856 0.33907 0.38529 0.44952 0.52464 0.59743 0.65397 0.68347 0.68037 0.64496 0.58315 0.50450 0.41995 0.34119 0.28196 0.25417 0.26397 0.31156 0.38944 0.48329 0.57485 0.64571 0.68113 0.67351 0.62450 0.54482 0.45064 0.35799 0.28279 0.23892 0.23547 0.27431 0.34966 0.44921 0.55658 0.65462 0.72883 0.77023 0.77727 0.75660 0.72093 0.68098 0.64262 0.61054 0.58653 0.56864 0.55273 0.53392 0.50783 0.47205 0.42699 0.37754 0.33539 0.31389 0.32200 0.36090 0.42439 0.50093 0.57623 0.63550 0.66722 0.66612 0.63333 0.57422 0.49976 0.42954 0.38501 0.37928 0.41369 0.48019 0.56373 0.64560 0.70738 0.73475 0.72061 0.66677 0.58362 0.48680 0.39144 0.31230 0.26339 0.25355 0.28441 0.35040 0.44017 0.53891 0.63127 0.70422 0.74964 0.76560 0.75450 0.72108 0.66946 0.60261 0.52755 0.45516 0.39664 0.36057 0.35052 0.36484 0.39817 0.44300 0.49325 0.54706 0.60333 0.65905 0.70863 0.74526 0.76268 0.75659 0.72565 0.67181 0.59965 0.51546 0.42654 0.34123 0.26981 0.22238 0.20583 0.22152 0.26475 0.32566 0.39128 0.44808 0.48486 0.49547 0.48071 0.44829 0.40962 0.37341 0.34197 0.31462
0.56371 0.47085 0.38506 0.30956 0.24450 0.18936 0.14427 0.11056 0.08957 0.08236 0.08963 0.10967 0.13852 0.17322 0.21042 0.24606 0.27827 0.30760 0.33665 0.36982 0.41259 0.46965 0.54211 0.62465 0.70887 0.78896 0.86025 0.91863 0.95959 0.97909 0.97489 0.94737 0.89940 0.83534 0.75944 0.67451 0.58198 0.48491 0.39205 0.31110 0.24537 0.19628 0.16436 0.14944 0.15044 0.16528 0.19124 0.22565 0.26683 0.31598 0.37711 0.45158 0.53240 0.60696 0.66321 0.69252 0.69053 0.65775 0.59929 0.52360 0.44131 0.36375 0.30380 0.27257 0.27515 0.31142 0.37532 0.45445 0.53262 0.59334 0.62337 0.61572 0.57133 0.49900 0.41191 0.32490 0.25534 0.21712 0.21770 0.25768 0.33056 0.42391 0.52177 0.60791 0.66925 0.69883 0.69726 0.67196 0.63464 0.59520 0.56072 0.53714 0.52657 0.52679 0.53211 0.53522 0.52919 0.50930 0.47420 0.42694 0.37757 0.34019 0.32632 0.34049 0.38007 0.43692 0.49848 0.55104 0.58383 0.59088 0.57038 0.52482 0.46309 0.40283 0.36477 0.36307 0.39932 0.46519 0.54576 0.62284 0.67891 0.70073 0.68229 0.62626 0.54336 0.44870 0.35706 0.28340 0.24091 0.23752 0.27405 0.34428 0.43643 0.53550 0.62607 0.69517 0.73491 0.74424 0.72798 0.69270 0.64301 0.58264 0.51991 0.46533 0.42811 0.41349 0.42210 0.45050 0.49230 0.53961 0.58583 0.62904 0.66944 0.70612 0.73556 0.75287 0.75347 0.73448 0.69572 0.63938 0.56928 0.49036 0.40836 0.33054 0.26675 0.22710 0.21870 0.24334 0.29665 0.36883 0.44652 0.51537 0.56319 0.58284 0.57439 0.54520 0.50687 0.46784 0.42968 0.39163
0.52063 0.42800 0.34309 0.26740 0.20132 0.14604 0.10376 0.07651 0.06551 0.07101 0.09253 0.12797 0.17283 0.22315 0.27482 0.32219 0.36179 0.39326 0.41953 0.44650 0.48125 0.52961 0.59275 0.66576 0.74151 0.81463 0.87954 0.93109 0.96479 0.97680 0.96516 0.93055 0.87614 0.80653 0.72614 0.63794 0.54343 0.44560 0.35141 0.26613 0.19326 0.13587 0.09672 0.07767 0.07903 0.09927 0.13536 0.18370 0.24118 0.30642 0.38074 0.46429 0.54998 0.62638 0.68387 0.71539 0.71704 0.68875 0.63443 0.56176 0.48092 0.40275 0.33892 0.29976 0.28993 0.30934 0.35380 0.41353 0.47512 0.52456 0.55009 0.54482 0.50859 0.44751 0.37090 0.29206 0.22845 0.19500 0.19862 0.23877 0.30823 0.39449 0.48216 0.55601 0.60428 0.62154 0.61016 0.57938 0.54074 0.50290 0.47433 0.46210 0.46831 0.48953 0.51805 0.54413 0.55839 0.55392 0.52780 0.48187 0.42440 0.36974 0.33189 0.31886 0.33185 0.36540 0.40891 0.45080 0.48139 0.49356 0.48322 0.45106 0.40358 0.35549 0.32571 0.32867 0.36688 0.43208 0.50978 0.58274 0.63461 0.65348 0.63447 0.58093 0.50350 0.41603 0.33260 0.26806 0.23428 0.23742 0.27705 0.34629 0.43336 0.52388 0.60356 0.66082 0.68905 0.68813 0.66454 0.62734 0.58192 0.53323 0.48953 0.45921 0.44805 0.45805 0.48731 0.53058 0.58051 0.62912 0.66981 0.70067 0.72341 0.73959 0.74819 0.74653 0.73198 0.70360 0.66199 0.60864 0.54573 0.47599 0.40332 0.33366 0.27633 0.24167 0.23745 0.26629 0.32458 0.40312 0.48882 0.56729 0.62590 0.65671 0.65859 0.63751 0.60332 0.56337 0.51998 0.47307
0.48058 0.38786 0.30276 0.22639 0.16036 0.10728 0.07013 0.05122 0.05145 0.07017 0.10568 0.15545 0.21492 0.27938 0.34383 0.40129 0.44684 0.47967 0.50343 0.52503 0.55248 0.59173 0.64395 0.70576 0.77137 0.83598 0.89367 0.93807 0.96462 0.96974 0.95169 0.91122 0.85153 0.77719 0.69273 0.60157 0.50632 0.41131 0.32158 0.23907 0.16608 0.10621 0.06364 0.04193 0.04290 0.06606 0.10866 0.16654 0.23558 0.31305 0.39791 0.48869 0.57794 0.65624 0.71605 0.75126 0.75782 0.73471 0.68492 0.61526 0.53528 0.45522 0.38530 0.33492 0.30869 0.30706 0.32809 0.36520 0.40824 0.44565 0.46693 0.46539 0.43944 0.39151 0.32747 0.25872 0.20152 0.17122 0.17541 0.21306 0.27675 0.35427 0.43097 0.49275 0.52917 0.53611 0.51705 0.48205 0.44306 0.40912 0.38957 0.39156 0.41653 0.45965 0.51132 0.55959 0.59284 0.60228 0.58367 0.53827 0.47320 0.40231 0.34147 0.30191 0.28793 0.29635 0.31941 0.34800 0.37313 0.38692 0.38448 0.36498 0.33242 0.29795 0.27795 0.28622 0.32635 0.39058 0.46522 0.53428 0.58294 0.60065 0.58369 0.53617 0.46829 0.39231 0.32141 0.26930 0.24613 0.25603 0.29689 0.36104 0.43693 0.51135 0.57203 0.60996 0.62119 0.60768 0.57666 0.53791 0.49815 0.46341 0.44074 0.43569 0.45081 0.48504 0.53392 0.59050 0.64663 0.69450 0.72822 0.74610 0.75129 0.74786 0.73743 0.71965 0.69451 0.66281 0.62501 0.58105 0.53054 0.47369 0.41247 0.35128 0.29857 0.26507 0.25969 0.28641 0.34301 0.42154 0.50992 0.59439 0.66240 0.70566 0.72218 0.71555 0.69168 0.65551 0.61045 0.55815
0.44104 0.34807 0.26303 0.18739 0.12348 0.07461 0.04416 0.03446 0.04595 0.07715 0.12526 0.18713 0.25868 0.33497 0.41020 0.47617 0.52690 0.56145 0.58380 0.60118 0.62152 0.65040 0.69018 0.73951 0.79398 0.84928 0.89958 0.93763 0.95840 0.95860 0.93655 0.89284 0.83025 0.75307 0.66615 0.57384 0.48032 0.39169 0.31123 0.23759 0.17110 0.11461 0.07254 0.04943 0.04845 0.07044 0.11383 0.17514 0.25013 0.33501 0.42707 0.52270 0.61411 0.69401 0.75638 0.79557 0.80715 0.78941 0.74437 0.67788 0.59862 0.51617 0.43934 0.37620 0.33145 0.30660 0.30230 0.31550 0.33930 0.36446 0.38197 0.38515 0.37014 0.33567 0.28507 0.22741 0.17693 0.14843 0.15063 0.18275 0.23764 0.30394 0.36827 0.41806 0.44439 0.44438 0.42228 0.38797 0.35209 0.32465 0.31625 0.33346 0.37680 0.44024 0.51263 0.58028 0.62978 0.65077 0.63799 0.59245 0.52132 0.43760 0.35786 0.29546 0.25666 0.24082 0.24323 0.25678 0.27353 0.28624 0.28969 0.28167 0.26384 0.24362 0.23425 0.24828 0.29005 0.35269 0.42365 0.48848 0.53383 0.55063 0.53674 0.49703 0.44089 0.37931 0.32429 0.28753 0.27683 0.29406 0.33529 0.39201 0.45295 0.50641 0.54265 0.55599 0.54600 0.51767 0.47966 0.44041 0.40611 0.38398 0.38003 0.39732 0.43532 0.49004 0.55467 0.62078 0.67971 0.72410 0.74931 0.75456 0.74408 0.72413 0.69872 0.67018 0.64130 0.61369 0.58681 0.55818 0.52454 0.48367 0.43550 0.38270 0.33254 0.29607 0.28367 0.30133 0.34880 0.42010 0.50490 0.59079 0.66653 0.72439 0.76066 0.77482 0.76748 0.74089 0.69870 0.64507
0.40266 0.31106 0.22770 0.15454 0.09440 0.05099 0.02778 0.02691 0.04836 0.08999 0.14826 0.21938 0.29986 0.38526 0.46917 0.54234 0.59804 0.63497 0.65672 0.66995 0.68183 0.69870 0.72478 0.76085 0.80397 0.85016 0.89376 0.92704 0.94433 0.94249 0.91970 0.87606 0.81382 0.73724 0.65139 0.56142 0.47353 0.39497 0.32759 0.26754 0.21225 0.16343 0.12497 0.10150 0.09697 0.11357 0.15138 0.20857 0.28216 0.36865 0.46392 0.56165 0.65365 0.73425 0.79847 0.84100 0.85722 0.84477 0.80473 0.74190 0.66393 0.57953 0.49642 0.42102 0.35792 0.31008 0.28096 0.27105 0.27646 0.29043 0.30529 0.31360 0.30878 0.28718 0.24986 0.20334 0.15944 0.13170 0.12969 0.15368 0.19722 0.25026 0.30119 0.33940 0.35792 0.35556 0.33684 0.30969 0.28170 0.26290 0.26549 0.29625 0.35483 0.43431 0.52255 0.60478 0.66641 0.69601 0.68755 0.64188 0.56677 0.47523 0.38307 0.30390 0.24497 0.20802 0.19088 0.18890 0.19610 0.20628 0.21406 0.21607 0.21197 0.20575 0.20713 0.22698 0.26989 0.33005 0.39629 0.45556 0.49597 0.51058 0.49905 0.46680 0.42253 0.37655 0.33931 0.31995 0.32338 0.34889 0.39067 0.43937 0.48412 0.51483 0.52456 0.51117 0.47809 0.43344 0.38739 0.34737 0.31792 0.30565 0.31608 0.35039 0.40541 0.47453 0.54894 0.61912 0.67633 0.71408 0.72925 0.72279 0.69988 0.66820 0.63362 0.60148 0.57649 0.56016 0.55010 0.54123 0.52777 0.50501 0.47070 0.42587 0.37633 0.33316 0.30839 0.31049 0.34178 0.39886 0.47394 0.55755 0.64070 0.71541 0.77507 0.81377 0.82719 0.81494 0.78010 0.72885
0.36772 0.28008 0.20060 0.13186 0.07710 0.04005 0.02395 0.03058 0.05958 0.10853 0.17367 0.25102 0.33732 0.42908 0.51962 0.59874 0.65897 0.69802 0.71827 0.72531 0.72665 0.73002 0.74157 0.76419 0.79655 0.83477 0.87319 0.90382 0.92036 0.91963 0.89949 0.85950 0.80166 0.72993 0.64934 0.56610 0.48835 0.42329 0.37186 0.32854 0.28791 0.24947 0.21627 0.19266 0.18300 0.19063 0.21741 0.26368 0.32856 0.40991 0.50335 0.59993 0.69053 0.77032 0.83500 0.87967 0.89971 0.89231 0.85768 0.79951 0.72422 0.63941 0.55191 0.46665 0.38771 0.31957 0.26860 0.23845 0.22820 0.23332 0.24667 0.25951 0.26371 0.25386 0.22884 0.19266 0.15463 0.12677 0.11895 0.13291 0.16338 0.20197 0.23928 0.26734 0.28207 0.28341 0.27459 0.25988 0.24349 0.23461 0.24608 0.28602 0.35408 0.44296 0.54024 0.63074 0.69946 0.73448 0.72935 0.68474 0.60858 0.51441 0.41708 0.32826 0.25523 0.20161 0.16798 0.15236 0.15085 0.15831 0.16945 0.17998 0.18792 0.19463 0.20625 0.23157 0.27493 0.33151 0.39136 0.44253 0.47526 0.48508 0.47342 0.44621 0.41226 0.38131 0.36210 0.36098 0.37968 0.41459 0.45796 0.49966 0.52923 0.53829 0.52263 0.48348 0.42743 0.36549 0.30943 0.26652 0.24106 0.23712 0.25809 0.30376 0.36914 0.44566 0.52303 0.59111 0.64159 0.66933 0.67319 0.65615 0.62466 0.58679 0.54972 0.52118 0.50666 0.50676 0.51731 0.53102 0.53956 0.53576 0.51524 0.47757 0.42712 0.37460 0.33357 0.31521 0.32481 0.36213 0.42335 0.50293 0.59336 0.68554 0.76892 0.83237 0.86788 0.87241 0.84810 0.80218
0.33522 0.25562 0.18374 0.12266 0.07555 0.04594 0.03667 0.04908 0.08266 0.13514 0.20326 0.28359 0.37316 0.46882 0.56370 0.64683 0.70960 0.74814 0.76370 0.76180 0.75070 0.73956 0.73634 0.74594 0.76871 0.80079 0.83609 0.86632 0.88471 0.88789 0.87337 0.84046 0.79070 0.72750 0.65616 0.58437 0.52073 0.47180 0.43808 0.41302 0.38899 0.36271 0.33585 0.31218 0.29625 0.29246 0.30448 0.33501 0.38577 0.45661 0.54316 0.63470 0.72136 0.79804 0.86095 0.90575 0.92811 0.92511 0.89632 0.84424 0.77385 0.69129 0.60232 0.51100 0.42064 0.33707 0.26927 0.22362 0.20175 0.20050 0.21278 0.22950 0.24163 0.24216 0.22789 0.20060 0.16728 0.13844 0.12391 0.12691 0.14363 0.16771 0.19269 0.21440 0.23082 0.24160 0.24722 0.24758 0.24421 0.24467 0.26154 0.30439 0.37418 0.46415 0.56234 0.65400 0.72443 0.76178 0.75956 0.71815 0.64504 0.55310 0.45613 0.36406 0.28351 0.21941 0.17464 0.14954 0.14200 0.14790 0.16211 0.17978 0.19772 0.21552 0.23634 0.26648 0.30954 0.36127 0.41231 0.45222 0.47381 0.47515 0.45937 0.43358 0.40707 0.38904 0.38657 0.40321 0.43750 0.48283 0.52943 0.56647 0.58393 0.57502 0.53768 0.47536 0.39769 0.31859 0.25107 0.20329 0.18017 0.18372 0.21347 0.26687 0.33727 0.41495 0.48892 0.54910 0.58814 0.60273 0.59411 0.56757 0.53091 0.49184 0.45799 0.43829 0.43826 0.45765 0.49070 0.52793 0.55860 0.57321 0.56549 0.53375 0.48150 0.41858 0.35969 0.31854 0.30353 0.31846 0.36450 0.43925 0.53586 0.64321 0.74673 0.83191 0.88770 0.90873 0.89605 0.85726
0.30321 0.23677 0.17712 0.12822 0.09241 0.07228 0.07005 0.08676 0.12201 0.17418 0.24113 0.32073 0.41087 0.50801 0.60402 0.68725 0.74812 0.78189 0.78932 0.77607 0.75121 0.72521 0.70770 0.70530 0.71987 0.74784 0.78211 0.81389 0.83609 0.84514 0.83840 0.81484 0.77543 0.72346 0.66510 0.60853 0.56163 0.53017 0.51452 0.50770 0.50053 0.48713 0.46733 0.44408 0.42191 0.40610 0.40211 0.41550 0.45072 0.50888 0.58476 0.66690 0.74589 0.81603 0.87386 0.91587 0.93842 0.93877 0.91609 0.87179 0.80919 0.73256 0.64608 0.55307 0.45675 0.36394 0.28551 0.22985 0.20021 0.19456 0.20651 0.22698 0.24615 0.25561 0.25031 0.23007 0.20006 0.16949 0.14804 0.14014 0.14365 0.15478 0.17126 0.19185 0.21517 0.23920 0.26055 0.27589 0.28445 0.29161 0.30913 0.34769 0.41052 0.49242 0.58282 0.66825 0.73502 0.77191 0.77255 0.73693 0.67136 0.58659 0.49404 0.40327 0.32119 0.25321 0.20360 0.17449 0.16521 0.17237 0.19080 0.21508 0.24116 0.26770 0.29619 0.33038 0.37241 0.41776 0.45741 0.48286 0.48955 0.47809 0.45381 0.42536 0.40259 0.39425 0.40594 0.43867 0.48794 0.54431 0.59607 0.63171 0.64169 0.62005 0.56554 0.48389 0.38777 0.29318 0.21418 0.16083 0.13884 0.14874 0.18626 0.24550 0.31807 0.39312 0.45943 0.50757 0.53177 0.53095 0.50896 0.47347 0.43355 0.39636 0.36942 0.36169 0.37820 0.41763 0.47271 0.53213 0.58314 0.61425 0.61754 0.59034 0.53589 0.46338 0.38779 0.32475 0.28566 0.27915 0.31063 0.37977 0.47948 0.59641 0.71382 0.81500 0.88660 0.92131 0.91917 0.88777
0.27092 0.22254 0.17989 0.14739 0.12663 0.11868 0.12462 0.14501 0.17976 0.22831 0.29014 0.36486 0.45150 0.54606 0.63859 0.71683 0.77111 0.79636 0.79310 0.76714 0.72822 0.68794 0.65733 0.64441 0.65216 0.67751 0.71230 0.74680 0.77378 0.78956 0.79137 0.77785 0.74985 0.71124 0.66844 0.62888 0.59954 0.58529 0.58651 0.59639 0.60483 0.60395 0.59161 0.56974 0.54268 0.51652 0.49922 0.49880 0.52097 0.56665 0.62933 0.69812 0.76487 0.82423 0.87286 0.90854 0.92867 0.93108 0.91471 0.87992 0.82826 0.76180 0.68257 0.59262 0.49551 0.39952 0.31634 0.25550 0.22169 0.21411 0.22709 0.25157 0.27711 0.29412 0.29604 0.28108 0.25304 0.22027 0.19234 0.17459 0.16669 0.16864 0.18176 0.20619 0.23981 0.27764 0.31324 0.34110 0.35836 0.36804 0.38067 0.40776 0.45511 0.52008 0.59440 0.66670 0.72497 0.75912 0.76321 0.73644 0.68291 0.60975 0.52548 0.43910 0.35902 0.29187 0.24272 0.21468 0.20801 0.21985 0.24491 0.27702 0.31106 0.34474 0.37903 0.41632 0.45659 0.49408 0.52018 0.52837 0.51678 0.48879 0.45212 0.41706 0.39412 0.39171 0.41414 0.46029 0.52305 0.59050 0.64922 0.68723 0.69488 0.66560 0.59912 0.50350 0.39354 0.28628 0.19761 0.13962 0.11866 0.13410 0.17862 0.24248 0.31545 0.38579 0.44231 0.47651 0.48442 0.46743 0.43226 0.38919 0.34816 0.31551 0.29829 0.30429 0.33739 0.39509 0.46889 0.54616 0.61292 0.65647 0.66790 0.64382 0.58726 0.50754 0.41914 0.33841 0.27948 0.25512 0.27354 0.33534 0.43296 0.55237 0.67590 0.78557 0.86658 0.91023 0.91574 0.89047
0.23930 0.21252 0.19083 0.17799 0.17501 0.18114 0.19603 0.21967 0.25228 0.29458 0.34774 0.41299 0.49059 0.57653 0.66051 0.72976 0.77424 0.78890 0.77417 0.73592 0.68424 0.63148 0.58968 0.56792 0.57002 0.59322 0.62886 0.66615 0.69780 0.72005 0.72999 0.72634 0.71043 0.68612 0.65918 0.63621 0.62326 0.62431 0.63968 0.66334 0.68496 0.69534 0.69063 0.67165 0.64252 0.61108 0.58712 0.57939 0.59317 0.62772 0.67609 0.72867 0.77889 0.82292 0.85813 0.88366 0.89856 0.90150 0.89140 0.86756 0.82962 0.77715 0.70968 0.62759 0.53464 0.44081 0.35845 0.29746 0.26337 0.25633 0.27139 0.29980 0.33086 0.35415 0.36185 0.35085 0.32392 0.28896 0.25562 0.22986 0.21379 0.21129 0.22569 0.25703 0.30110 0.35054 0.39699 0.43315 0.45454 0.46191 0.46423 0.47355 0.49825 0.53894 0.59041 0.64412 0.69041 0.72100 0.73020 0.71562 0.67787 0.61962 0.54671 0.46732 0.39107 0.32669 0.28046 0.25632 0.25510 0.27415 0.30799 0.34973 0.39314 0.43461 0.47405 0.51331 0.55097 0.57951 0.59071 0.57996 0.54806 0.50115 0.44932 0.40449 0.37791 0.37776 0.40724 0.46352 0.53751 0.61536 0.68243 0.72625 0.73574 0.70373 0.63110 0.52749 0.40852 0.29261 0.19769 0.13743 0.11854 0.13943 0.19043 0.25829 0.33079 0.39558 0.44171 0.46185 0.45406 0.42288 0.37810 0.33145 0.29233 0.26630 0.25997 0.27933 0.32675 0.39865 0.48560 0.57428 0.65014 0.70014 0.71522 0.69204 0.63382 0.55001 0.45455 0.36289 0.29080 0.25334 0.25995 0.31191 0.40217 0.51693 0.63844 0.74839 0.83141 0.87815 0.88725 0.86575
0.21046 0.20684 0.20831 0.21706 0.23326 0.25429 0.27827 0.30456 0.33376 0.36740 0.40788 0.45846 0.52104 0.59217 0.66286 0.72067 0.75450 0.75888 0.73412 0.68596 0.62448 0.56226 0.51180 0.48282 0.47972 0.50012 0.53537 0.57434 0.60979 0.63773 0.65526 0.66128 0.65698 0.64579 0.63284 0.62395 0.62437 0.63735 0.66300 0.69645 0.72796 0.74778 0.75079 0.73682 0.71073 0.68173 0.65969 0.65226 0.66253 0.68800 0.72233 0.75732 0.78801 0.81277 0.83072 0.84257 0.84935 0.85095 0.84638 0.83397 0.81131 0.77556 0.72408 0.65564 0.57371 0.48835 0.41229 0.35590 0.32497 0.32026 0.33756 0.36867 0.40315 0.43045 0.44224 0.43442 0.40865 0.37229 0.33515 0.30375 0.28323 0.28013 0.29817 0.33614 0.38822 0.44552 0.49819 0.53754 0.55796 0.55849 0.54618 0.53330 0.53057 0.54219 0.56657 0.59862 0.63200 0.66017 0.67701 0.67753 0.65778 0.61639 0.55673 0.48595 0.41438 0.35305 0.30986 0.28972 0.29413 0.32078 0.36407 0.41651 0.47081 0.52188 0.56799 0.60939 0.64366 0.66290 0.65907 0.62918 0.57650 0.50982 0.44152 0.38507 0.35239 0.35148 0.38464 0.44764 0.53003 0.61684 0.69286 0.74450 0.75880 0.72842 0.65491 0.54830 0.42519 0.30558 0.20884 0.14959 0.13468 0.16162 0.21895 0.29072 0.36276 0.42238 0.45910 0.46713 0.44760 0.40800 0.35962 0.31407 0.27939 0.26075 0.26431 0.29452 0.35186 0.43200 0.52511 0.61775 0.69547 0.74560 0.75963 0.73486 0.67514 0.59017 0.49324 0.39791 0.31956 0.27357 0.26996 0.31073 0.38961 0.49359 0.60563 0.70799 0.78566 0.82939 0.83761 0.81695
0.18701 0.20590 0.23054 0.26111 0.29642 0.33214 0.36484 0.39319 0.41740 0.43924 0.46301 0.49437 0.53663 0.58809 0.64223 0.68759 0.71215 0.70900 0.67789 0.62405 0.55709 0.48931 0.43311 0.39835 0.38977 0.40558 0.43791 0.47674 0.51519 0.54842 0.57296 0.58733 0.59242 0.59130 0.58865 0.58968 0.59903 0.61948 0.65098 0.68973 0.72745 0.75467 0.76555 0.75975 0.74329 0.72510 0.71332 0.71271 0.72356 0.74265 0.76438 0.78200 0.79197 0.79502 0.79287 0.78822 0.78427 0.78236 0.78180 0.78001 0.77324 0.75701 0.72629 0.67788 0.61431 0.54392 0.47888 0.43049 0.40498 0.40353 0.42255 0.45461 0.48990 0.51835 0.53178 0.52597 0.50192 0.46588 0.42690 0.39221 0.36974 0.36718 0.38798 0.43004 0.48639 0.54694 0.60070 0.63808 0.65274 0.64290 0.61360 0.57679 0.54510 0.52624 0.52257 0.53340 0.55578 0.58426 0.61142 0.62856 0.62740 0.60343 0.55751 0.49569 0.42862 0.36925 0.32766 0.30981 0.31806 0.35068 0.40224 0.46496 0.53084 0.59362 0.64937 0.69517 0.72663 0.73665 0.71846 0.67038 0.59782 0.51196 0.42731 0.35880 0.31892 0.31541 0.34968 0.41636 0.50407 0.59761 0.68183 0.74138 0.76192 0.73579 0.66455 0.55892 0.43657 0.31844 0.22458 0.16996 0.16129 0.19528 0.25914 0.33507 0.40745 0.46344 0.49346 0.49443 0.47017 0.42951 0.38370 0.34277 0.31386 0.30190 0.31251 0.34911 0.41048 0.49170 0.58327 0.67228 0.74505 0.78980 0.79904 0.77102 0.71025 0.62631 0.53115 0.43674 0.35741 0.30742 0.29643 0.32665 0.39251 0.48194 0.57908 0.66746 0.73336 0.76846 0.77158 0.74899
0.17130 0.21007 0.25577 0.30658 0.35966 0.40899 0.44966 0.47887 0.49569 0.50290 0.50706 0.51578 0.53398 0.56309 0.59950 0.63320 0.65156 0.64559 0.61365 0.55987 0.49289 0.42409 0.36529 0.32607 0.31142 0.32052 0.34743 0.38474 0.42586 0.46405 0.49447 0.51481 0.52551 0.52945 0.53129 0.53626 0.54891 0.57178 0.60469 0.64453 0.68494 0.71761 0.73675 0.74295 0.74229 0.74177 0.74613 0.75665 0.77167 0.78736 0.79873 0.80062 0.79061 0.77151 0.74792 0.72502 0.70826 0.70059 0.70181 0.70951 0.71948 0.72514 0.71890 0.69590 0.65653 0.60624 0.55587 0.51731 0.49802 0.49968 0.51942 0.55064 0.58444 0.61160 0.62463 0.61964 0.59749 0.56345 0.52456 0.48799 0.46384 0.46063 0.48164 0.52414 0.58031 0.63923 0.68921 0.72013 0.72536 0.70299 0.65673 0.59742 0.53890 0.49194 0.46325 0.45680 0.47231 0.50446 0.54349 0.57705 0.59384 0.58650 0.55350 0.49970 0.43586 0.37640 0.33375 0.31518 0.32407 0.35953 0.41671 0.48844 0.56672 0.64358 0.71169 0.76421 0.79467 0.79626 0.76474 0.70024 0.60993 0.50697 0.40767 0.32820 0.28151 0.27495 0.30898 0.37707 0.46715 0.56448 0.65430 0.71968 0.74531 0.72345 0.65614 0.55477 0.43750 0.32555 0.23892 0.19233 0.19203 0.23405 0.30476 0.38535 0.45940 0.51430 0.54252 0.54347 0.52214 0.48717 0.44814 0.41356 0.39036 0.38315 0.39676 0.43404 0.49277 0.56760 0.64997 0.72827 0.79018 0.82534 0.82750 0.79566 0.73417 0.65190 0.55930 0.46733 0.38966 0.33924 0.32428 0.34641 0.40028 0.47471 0.55507 0.62639 0.67655 0.69885 0.69341 0.66670
0.16500 0.21967 0.28266 0.35067 0.41910 0.48033 0.52755 0.55548 0.56279 0.55369 0.53654 0.52043 0.51323 0.51975 0.53945 0.56400 0.58050 0.57763 0.55144 0.50440 0.44350 0.37865 0.32054 0.27824 0.25738 0.25880 0.27924 0.31443 0.35780 0.40040 0.43529 0.45888 0.47089 0.47408 0.47334 0.47450 0.48288 0.50180 0.53158 0.56922 0.60952 0.64596 0.67393 0.69501 0.71393 0.73443 0.75766 0.78207 0.80409 0.81919 0.82291 0.81165 0.78412 0.74444 0.69987 0.65828 0.62737 0.61179 0.61287 0.62931 0.65595 0.68410 0.70430 0.70993 0.69797 0.67057 0.63670 0.60833 0.59459 0.59817 0.61705 0.64563 0.67615 0.70042 0.71185 0.70711 0.68712 0.65624 0.61925 0.58239 0.55640 0.55055 0.56829 0.60675 0.65786 0.71043 0.75250 0.77377 0.76755 0.73212 0.67106 0.59370 0.51397 0.44500 0.39798 0.38067 0.39424 0.43246 0.48329 0.53213 0.56520 0.57256 0.55054 0.50280 0.44008 0.37795 0.33095 0.30792 0.31341 0.34773 0.40782 0.48785 0.57915 0.67117 0.75252 0.81283 0.84388 0.83877 0.79552 0.71710 0.61224 0.49565 0.38496 0.29719 0.24547 0.23666 0.27013 0.33818 0.42804 0.52560 0.61665 0.68362 0.71131 0.69248 0.62975 0.53484 0.42590 0.32379 0.24786 0.21205 0.22177 0.27246 0.35015 0.43583 0.51310 0.57046 0.60270 0.61036 0.59807 0.57273 0.54199 0.51380 0.49493 0.48973 0.50198 0.53407 0.58358 0.64511 0.71162 0.77344 0.82021 0.84328 0.83714 0.80067 0.73809 0.65745 0.56755 0.47884 0.40414 0.35504 0.33861 0.35546 0.39980 0.46092 0.52537 0.57973 0.61359 0.62191 0.60633 0.57428
0.16899 0.23506 0.31072 0.39194 0.47263 0.54351 0.59482 0.61933 0.61585 0.58962 0.55019 0.50919 0.47774 0.46380 0.46966 0.48893 0.50852 0.51494 0.50121 0.46753 0.41863 0.36240 0.30813 0.26479 0.23874 0.23266 0.24674 0.27947 0.32428 0.37044 0.40829 0.43263 0.44228 0.43968 0.43007 0.42017 0.41661 0.42430 0.44512 0.47719 0.51554 0.55434 0.59087 0.62706 0.66562 0.70727 0.74996 0.78941 0.82018 0.83699 0.83576 0.81432 0.77279 0.71581 0.65249 0.59316 0.54769 0.52292 0.52275 0.54655 0.58820 0.63769 0.68438 0.71879 0.73437 0.72994 0.71224 0.69298 0.68288 0.68628 0.70222 0.72632 0.75208 0.77250 0.78211 0.77859 0.76280 0.73732 0.70420 0.66880 0.64127 0.63082 0.64158 0.67134 0.71261 0.75461 0.78569 0.79570 0.77802 0.73102 0.65863 0.56964 0.47682 0.39474 0.33809 0.31676 0.33223 0.37761 0.43967 0.50207 0.54893 0.56823 0.55449 0.51028 0.44624 0.37879 0.32424 0.29299 0.29099 0.32093 0.38231 0.46984 0.57343 0.67944 0.77265 0.84009 0.87226 0.86224 0.80961 0.72039 0.60503 0.47929 0.36157 0.26925 0.21524 0.20560 0.23858 0.30545 0.39310 0.48814 0.57651 0.64097 0.66733 0.64938 0.59051 0.50269 0.40378 0.31377 0.25083 0.22757 0.24830 0.30775 0.39208 0.48291 0.56477 0.62808 0.66891 0.68745 0.68657 0.67124 0.64821 0.62493 0.60806 0.60185 0.60882 0.63079 0.66559 0.70845 0.75428 0.79594 0.82541 0.83504 0.81947 0.77798 0.71462 0.63592 0.54954 0.46540 0.39521 0.34908 0.33277 0.34607 0.38292 0.43290 0.48349 0.52273 0.54196 0.53785 0.51341 0.47687
0.18360 0.25680 0.34056 0.43077 0.52030 0.59771 0.65027 0.66949 0.65415 0.61018 0.54916 0.48550 0.43323 0.40292 0.39918 0.41763 0.44519 0.46634 0.47082 0.45601 0.42391 0.38012 0.33283 0.29062 0.26059 0.24785 0.25624 0.28607 0.33117 0.37969 0.41931 0.44260 0.44739 0.43572 0.41307 0.38708 0.36590 0.35640 0.36258 0.38450 0.41823 0.45770 0.50077 0.54964 0.60540 0.66615 0.72698 0.78105 0.82113 0.84113 0.83726 0.80851 0.75664 0.68666 0.60826 0.53353 0.47432 0.44048 0.43814 0.46714 0.52118 0.58981 0.66044 0.72067 0.76092 0.77693 0.77307 0.76051 0.75133 0.75190 0.76262 0.78050 0.80045 0.81715 0.82697 0.82806 0.81996 0.80240 0.77492 0.74191 0.71282 0.69655 0.69774 0.71530 0.74310 0.77163 0.79014 0.78901 0.76179 0.70676 0.62772 0.53355 0.43617 0.35029 0.29204 0.27221 0.29266 0.34619 0.41872 0.49256 0.55027 0.57825 0.56974 0.52648 0.45892 0.38410 0.31957 0.27713 0.26488 0.28889 0.35038 0.44378 0.55711 0.67364 0.77553 0.84780 0.88031 0.86653 0.80719 0.71073 0.58941 0.45949 0.33957 0.24677 0.19333 0.18444 0.21767 0.28356 0.36868 0.46015 0.54352 0.60253 0.62451 0.60479 0.54791 0.46626 0.37734 0.30009 0.25109 0.24118 0.27313 0.34088 0.43081 0.52603 0.61297 0.68369 0.73420 0.76326 0.77221 0.76491 0.74731 0.72639 0.70870 0.69855 0.69743 0.70610 0.72279 0.74396 0.76690 0.78734 0.79894 0.79460 0.76986 0.72447 0.66154 0.58600 0.50497 0.42755 0.36402 0.32298 0.30883 0.32047 0.35161 0.39230 0.43108 0.45759 0.46492 0.45147 0.42144 0.38347
0.20905 0.28547 0.37362 0.46894 0.56358 0.64369 0.69427 0.70588 0.67751 0.61652 0.53659 0.45448 0.38655 0.34536 0.33705 0.35895 0.39835 0.43793 0.46436 0.47188 0.45954 0.43084 0.39254 0.35277 0.31979 0.30179 0.30507 0.33137 0.37542 0.42488 0.46537 0.48679 0.48575 0.46379 0.42651 0.38230 0.34073 0.31061 0.29821 0.30574 0.33080 0.36788 0.41446 0.47187 0.54025 0.61587 0.69163 0.75860 0.80787 0.83227 0.82782 0.79432 0.73518 0.65650 0.56754 0.48097 0.41053 0.36888 0.36384 0.39625 0.46015 0.54412 0.63367 0.71412 0.77355 0.80535 0.81145 0.80228 0.79099 0.78604 0.78941 0.79972 0.81389 0.82928 0.84329 0.85322 0.85616 0.84859 0.82806 0.79770 0.76636 0.74300 0.73304 0.73680 0.74978 0.76412 0.77048 0.76008 0.72673 0.66840 0.58820 0.49436 0.39876 0.31654 0.26350 0.25025 0.27852 0.34085 0.42266 0.50548 0.57086 0.60420 0.59795 0.55345 0.48104 0.39800 0.32250 0.26759 0.24460 0.26231 0.32267 0.41929 0.53815 0.66046 0.76660 0.84023 0.87110 0.85379 0.79006 0.68997 0.56725 0.43815 0.32075 0.23135 0.18148 0.17605 0.21167 0.27782 0.36109 0.44860 0.52550 0.57681 0.59227 0.56875 0.51193 0.43485 0.35481 0.28970 0.25438 0.25766 0.30043 0.37542 0.46919 0.56675 0.65689 0.73257 0.78934 0.82502 0.83993 0.83699 0.82140 0.79974 0.77843 0.76193 0.75130 0.74576 0.74369 0.74310 0.74397 0.74446 0.73918 0.72236 0.69064 0.64356 0.58285 0.51277 0.43980 0.37188 0.31764 0.28409 0.27440 0.28664 0.31430 0.34794 0.37735 0.39384 0.39235 0.37286 0.34073 0.30458
0.24587 0.32178 0.41094 0.50801 0.60354 0.68171 0.72643 0.72821 0.68688 0.61124 0.51667 0.42172 0.34436 0.29842 0.29077 0.31957 0.37284 0.43205 0.48130 0.51180 0.51985 0.50671 0.47762 0.44065 0.40594 0.38390 0.38228 0.40422 0.44579 0.49483 0.53556 0.55529 0.54906 0.51779 0.46694 0.40544 0.34398 0.29315 0.26116 0.25205 0.26485 0.29514 0.34070 0.40124 0.47586 0.56001 0.64542 0.72179 0.77890 0.80853 0.80600 0.77097 0.70758 0.62355 0.52863 0.43488 0.35732 0.31057 0.30393 0.33900 0.40967 0.50370 0.60537 0.69857 0.76989 0.81126 0.82258 0.81324 0.79711 0.78448 0.77902 0.78145 0.79202 0.80993 0.83235 0.85468 0.87080 0.87450 0.86162 0.83377 0.79923 0.76748 0.74520 0.73442 0.73260 0.73373 0.72996 0.71343 0.67812 0.62170 0.54658 0.45975 0.37214 0.29953 0.25733 0.25472 0.29259 0.36314 0.45168 0.53970 0.60869 0.64385 0.63729 0.59015 0.51278 0.42231 0.33674 0.27057 0.23822 0.25001 0.30787 0.40431 0.52399 0.64688 0.75234 0.82333 0.84980 0.82821 0.76159 0.66097 0.54088 0.41697 0.30616 0.22391 0.18165 0.18319 0.22359 0.29162 0.37402 0.45721 0.52646 0.56821 0.57504 0.54610 0.48809 0.41446 0.34219 0.28811 0.26540 0.28076 0.33301 0.41342 0.50847 0.60503 0.69420 0.76981 0.82729 0.86388 0.87923 0.87571 0.85807 0.83255 0.80536 0.78099 0.76064 0.74225 0.72362 0.70433 0.68686 0.67070 0.65186 0.62610 0.59060 0.54424 0.48836 0.42673 0.36488 0.30936 0.26703 0.24333 0.24033 0.25539 0.28183 0.31082 0.33342 0.34255 0.33482 0.31198 0.28048 0.24854
0.29377 0.36550 0.45175 0.54694 0.63946 0.71185 0.74801 0.73906 0.68590 0.59866 0.49419 0.39234 0.31198 0.26728 0.26499 0.30299 0.36987 0.44689 0.51652 0.56754 0.59371 0.59412 0.57295 0.53892 0.50339 0.47777 0.47105 0.48771 0.52542 0.57287 0.61352 0.63257 0.62328 0.58573 0.52501 0.45023 0.37308 0.30526 0.25605 0.23054 0.22892 0.24816 0.28683 0.34395 0.41731 0.50222 0.59023 0.67062 0.73251 0.76688 0.76817 0.73530 0.67200 0.58634 0.48945 0.39396 0.31501 0.26772 0.26173 0.29878 0.37265 0.47078 0.57699 0.67458 0.74958 0.79345 0.80506 0.79245 0.76969 0.74833 0.73378 0.73015 0.74055 0.76480 0.79888 0.83547 0.86560 0.88090 0.87563 0.84986 0.81127 0.77015 0.73491 0.70957 0.69370 0.68327 0.67193 0.65279 0.62061 0.57299 0.51087 0.43897 0.36622 0.30765 0.27881 0.28815 0.33539 0.41214 0.50378 0.59231 0.65991 0.69252 0.68288 0.63237 0.55118 0.45579 0.36311 0.28910 0.25011 0.25693 0.31105 0.40425 0.52044 0.63903 0.73906 0.80346 0.82264 0.79523 0.72615 0.62706 0.51248 0.39690 0.29599 0.22506 0.19442 0.20598 0.25340 0.32525 0.40747 0.48576 0.54613 0.57677 0.57300 0.53687 0.47626 0.40485 0.33913 0.29472 0.28295 0.30839 0.36802 0.45212 0.54719 0.64123 0.72643 0.79734 0.84963 0.88056 0.88974 0.87953 0.85478 0.82183 0.78688 0.75420 0.72488 0.69654 0.66593 0.63366 0.60366 0.57626 0.54890 0.51839 0.48219 0.43953 0.39167 0.34161 0.29367 0.25294 0.22459 0.21255 0.21796 0.23766 0.26485 0.29135 0.30925 0.31273 0.30037 0.27585 0.24640 0.21985
0.35022 0.41520 0.49591 0.58640 0.67361 0.73866 0.76537 0.74598 0.68263 0.58673 0.47628 0.37205 0.29336 0.25425 0.26058 0.30880 0.38694 0.47706 0.56157 0.62768 0.66708 0.67738 0.66234 0.63069 0.59406 0.56456 0.55226 0.56280 0.59541 0.64029 0.68084 0.70078 0.69164 0.65251 0.58786 0.50701 0.42188 0.34411 0.28290 0.24356 0.22726 0.23240 0.25855 0.30513 0.36932 0.44660 0.52925 0.60705 0.66920 0.70637 0.71226 0.68479 0.62659 0.54483 0.45052 0.35780 0.28262 0.23898 0.23585 0.27460 0.34881 0.44583 0.54949 0.64337 0.71399 0.75336 0.76058 0.74262 0.71290 0.68335 0.66161 0.65530 0.66918 0.70271 0.74997 0.80110 0.84485 0.87099 0.87254 0.84820 0.80496 0.75402 0.70578 0.66649 0.63786 0.61783 0.60173 0.58462 0.56207 0.53063 0.48900 0.43909 0.38695 0.34566 0.33032 0.34970 0.40315 0.48211 0.57225 0.65636 0.71782 0.74392 0.72865 0.67430 0.59112 0.49438 0.39909 0.32193 0.27980 0.28326 0.33327 0.42112 0.53046 0.64074 0.73137 0.78586 0.79531 0.76022 0.68802 0.59109 0.48330 0.37772 0.28960 0.23339 0.21735 0.24138 0.29828 0.37556 0.45784 0.53038 0.58052 0.59865 0.58275 0.53783 0.47317 0.40255 0.34178 0.30510 0.30207 0.33591 0.40235 0.49039 0.58629 0.67803 0.75777 0.82083 0.86327 0.88285 0.87987 0.85733 0.82066 0.77665 0.73176 0.69037 0.65338 0.61823 0.58120 0.54294 0.50729 0.47485 0.44399 0.41266 0.37943 0.34401 0.30734 0.27153 0.23955 0.21501 0.20160 0.20205 0.21672 0.24211 0.27140 0.29676 0.31078 0.30920 0.29279 0.26692 0.23933 0.21819
0.41428 0.47242 0.54651 0.63007 0.70995 0.76703 0.78471 0.75611 0.68470 0.58304 0.46990 0.36647 0.29202 0.26002 0.27524 0.33258 0.41842 0.51520 0.60712 0.68103 0.72762 0.74352 0.73167 0.70033 0.66120 0.62694 0.60842 0.61226 0.63886 0.68036 0.72089 0.74345 0.73824 0.70325 0.64259 0.56528 0.48217 0.40355 0.33739 0.28862 0.25929 0.24906 0.25850 0.28812 0.33570 0.39735 0.46686 0.53530 0.59272 0.63002 0.64048 0.62077 0.57153 0.49809 0.41052 0.32334 0.25409 0.21659 0.21809 0.25882 0.33186 0.42452 0.52096 0.60542 0.66548 0.69459 0.69340 0.66915 0.63378 0.59856 0.57353 0.56868 0.58925 0.63370 0.69425 0.75904 0.81491 0.85016 0.85695 0.83313 0.78488 0.72425 0.66362 0.61148 0.57165 0.54414 0.52710 0.51735 0.51027 0.50078 0.48514 0.46201 0.43398 0.41134 0.40814 0.43393 0.48866 0.56427 0.64734 0.72202 0.77327 0.79011 0.76808 0.71048 0.62743 0.53235 0.43835 0.36218 0.32035 0.32269 0.36950 0.45160 0.55255 0.65218 0.73076 0.77297 0.77113 0.72690 0.65024 0.55468 0.45322 0.35817 0.28457 0.24509 0.24569 0.28471 0.35316 0.43666 0.51873 0.58451 0.62304 0.62746 0.59839 0.54358 0.47376 0.40264 0.34517 0.31435 0.31910 0.36145 0.43533 0.52843 0.62652 0.71664 0.79034 0.84353 0.87354 0.87874 0.86026 0.82214 0.77077 0.71362 0.65757 0.60715 0.56329 0.52344 0.48415 0.44580 0.41042 0.37834 0.34894 0.32147 0.29541 0.27073 0.24796 0.22822 0.21316 0.20496 0.20612 0.21859 0.24225 0.27338 0.30506 0.32917 0.33886 0.33173 0.31059 0.28215 0.25514 0.23842
0.48689 0.53901 0.60550 0.68001 0.75052 0.79881 0.80839 0.77245 0.69554 0.59101 0.47807 0.37775 0.30872 0.28342 0.30533 0.36802 0.45691 0.55452 0.64669 0.72117 0.76839 0.78428 0.77113 0.73682 0.69305 0.65277 0.62743 0.62433 0.64462 0.68209 0.72255 0.74919 0.75150 0.72686 0.67905 0.61560 0.54503 0.47502 0.41153 0.35895 0.31983 0.29490 0.28551 0.29359 0.31859 0.35798 0.40765 0.46074 0.50880 0.54346 0.55731 0.54514 0.50579 0.44296 0.36527 0.28650 0.22429 0.19330 0.19984 0.24259 0.31364 0.40015 0.48681 0.55891 0.60546 0.62163 0.60995 0.57927 0.54078 0.50412 0.48079 0.48161 0.51145 0.56759 0.64074 0.71741 0.78301 0.82484 0.83462 0.81008 0.75666 0.68694 0.61503 0.55149 0.50214 0.47002 0.45602 0.45776 0.46988 0.48563 0.49862 0.50408 0.50090 0.49613 0.50236 0.52996 0.58051 0.64710 0.71789 0.77888 0.81708 0.82349 0.79499 0.73513 0.65328 0.56075 0.46959 0.39658 0.35754 0.36114 0.40668 0.48442 0.57784 0.66723 0.73371 0.76324 0.74963 0.69595 0.61364 0.51779 0.42102 0.33610 0.27746 0.25585 0.27507 0.33080 0.41153 0.50111 0.58224 0.64023 0.66593 0.65572 0.61300 0.54789 0.47238 0.39991 0.34464 0.31947 0.33255 0.38408 0.46610 0.56533 0.66650 0.75544 0.82296 0.86533 0.88172 0.87181 0.83760 0.78407 0.71842 0.64871 0.58211 0.52318 0.47282 0.42875 0.38848 0.35274 0.32172 0.29489 0.27208 0.25333 0.23870 0.22810 0.22137 0.21856 0.22016 0.22726 0.24142 0.26420 0.29541 0.33118 0.36405 0.38533 0.38915 0.37489 0.34705 0.31391 0.28554 0.27146
0.56747 0.61383 0.67130 0.73465 0.79375 0.83229 0.83458 0.79349 0.71392 0.60963 0.49962 0.40427 0.34112 0.32121 0.34663 0.41009 0.49712 0.59149 0.67919 0.74791 0.78887 0.79823 0.77827 0.73685 0.68574 0.63804 0.60543 0.59553 0.60988 0.64308 0.68309 0.71450 0.72715 0.71854 0.69146 0.65084 0.60170 0.54847 0.49503 0.44471 0.40009 0.36276 0.33468 0.31917 0.31788 0.33055 0.35566 0.38896 0.42402 0.45279 0.46681 0.45992 0.42978 0.37849 0.31291 0.24523 0.19180 0.16734 0.17820 0.22191 0.28979 0.36885 0.44441 0.50304 0.53554 0.53903 0.51785 0.48211 0.44305 0.40953 0.39287 0.40323 0.44442 0.51250 0.59691 0.68304 0.75541 0.80082 0.81096 0.78401 0.72532 0.64747 0.56583 0.49254 0.43586 0.40213 0.39397 0.40927 0.44194 0.48347 0.52457 0.55720 0.57692 0.58722 0.59911 0.62363 0.66467 0.71727 0.77166 0.81622 0.84029 0.83624 0.80145 0.73965 0.65925 0.56942 0.48182 0.41299 0.37781 0.38408 0.43010 0.50538 0.59326 0.67445 0.73095 0.74986 0.72627 0.66447 0.57685 0.47946 0.38591 0.31045 0.26700 0.26410 0.30246 0.37470 0.46689 0.56139 0.64038 0.68967 0.70176 0.67647 0.62024 0.54518 0.46415 0.39020 0.33763 0.31917 0.34139 0.40247 0.49301 0.59864 0.70281 0.79043 0.85176 0.88345 0.88644 0.86242 0.81433 0.74789 0.67081 0.59132 0.51646 0.45059 0.39453 0.34644 0.30546 0.27272 0.24749 0.22873 0.21606 0.20967 0.20975 0.21588 0.22705 0.24196 0.25970 0.28037 0.30523 0.33582 0.37221 0.41035 0.44178 0.45762 0.45307 0.42908 0.39197 0.35173 0.31973 0.30608
0.65226 0.69200 0.73879 0.78896 0.83482 0.86271 0.85834 0.81430 0.73506 0.63417 0.52991 0.44136 0.38444 0.36861 0.39506 0.45614 0.53798 0.62606 0.70611 0.76496 0.79409 0.79087 0.75859 0.70575 0.64446 0.58798 0.54795 0.53181 0.54100 0.57034 0.60927 0.64507 0.66941 0.68030 0.67876 0.66635 0.64442 0.61418 0.57699 0.53462 0.48918 0.44290 0.39831 0.35978 0.33135 0.31558 0.31395 0.32516 0.34433 0.36337 0.37396 0.36978 0.34761 0.30790 0.25580 0.20134 0.15861 0.14119 0.15583 0.19941 0.26272 0.33301 0.39659 0.44165 0.46100 0.45381 0.42604 0.38835 0.35118 0.32397 0.31785 0.34088 0.39496 0.47460 0.56815 0.66043 0.73582 0.78137 0.78913 0.75790 0.69372 0.60900 0.51951 0.43854 0.37714 0.34411 0.34319 0.37243 0.42483 0.48978 0.55537 0.61086 0.64910 0.67022 0.68340 0.70034 0.72748 0.76241 0.79797 0.82518 0.83494 0.82036 0.77969 0.71674 0.63823 0.55186 0.46891 0.40520 0.37461 0.38397 0.43093 0.50467 0.58851 0.66361 0.71280 0.72430 0.69427 0.62789 0.53798 0.44043 0.35052 0.28462 0.25593 0.27059 0.32631 0.41284 0.51414 0.61136 0.68655 0.72630 0.72470 0.68459 0.61565 0.53176 0.44608 0.37177 0.32352 0.31296 0.34473 0.41529 0.51396 0.62504 0.73106 0.81654 0.87162 0.89346 0.88464 0.84904 0.79058 0.71543 0.63134 0.54626 0.46684 0.39691 0.33696 0.28591 0.24466 0.21434 0.19401 0.18270 0.18031 0.18700 0.20261 0.22617 0.25571 0.28861 0.32246 0.35600 0.38981 0.42579 0.46464 0.50201 0.52855 0.53564 0.51964 0.48314 0.43428 0.38466 0.34678 0.33131
0.73448 0.76608 0.80055 0.83591 0.86714 0.88376 0.87330 0.82830 0.75217 0.65770 0.56179 0.48172 0.43167 0.42013 0.44719 0.50462 0.57973 0.65928 0.72886 0.77505 0.78942 0.77020 0.72203 0.65474 0.58132 0.51531 0.46816 0.44677 0.45193 0.47815 0.51554 0.55425 0.58925 0.61923 0.64348 0.66055 0.66833 0.66459 0.64787 0.61796 0.57613 0.52484 0.46741 0.40884 0.35531 0.31235 0.28464 0.27342 0.27464 0.28123 0.28581 0.28227 0.26657 0.23802 0.20000 0.16006 0.12950 0.11997 0.13811 0.18085 0.23872 0.29953 0.35094 0.38312 0.39104 0.37585 0.34485 0.30860 0.27609 0.25716 0.26301 0.30006 0.36751 0.45774 0.55790 0.65245 0.72623 0.76731 0.76915 0.73175 0.66177 0.57166 0.47666 0.39078 0.32743 0.29703 0.30406 0.34624 0.41525 0.49871 0.58267 0.65440 0.70492 0.73172 0.74197 0.74788 0.75835 0.77387 0.79018 0.80025 0.79595 0.77176 0.72683 0.66417 0.58874 0.50763 0.43120 0.37399 0.34880 0.36163 0.40963 0.48191 0.56221 0.63243 0.67651 0.68383 0.65159 0.58544 0.49786 0.40379 0.31952 0.26303 0.24735 0.27679 0.34643 0.44360 0.55043 0.64734 0.71666 0.74609 0.73141 0.67772 0.59770 0.50673 0.41805 0.34544 0.30320 0.30131 0.34258 0.42186 0.52704 0.64144 0.74723 0.82909 0.87760 0.89075 0.87259 0.82899 0.76474 0.68605 0.60029 0.51496 0.43595 0.36598 0.30511 0.25350 0.21281 0.18399 0.16643 0.15974 0.16439 0.18097 0.20930 0.24791 0.29395 0.34359 0.39298 0.43947 0.48241 0.52305 0.56220 0.59547 0.61350 0.60853 0.57831 0.52710 0.46462 0.40387 0.35833 0.33911
0.80606 0.82783 0.84862 0.86825 0.88415 0.88931 0.87335 0.82896 0.75826 0.67267 0.58724 0.51739 0.47632 0.47085 0.49937 0.55343 0.62169 0.69134 0.74833 0.77971 0.77770 0.74156 0.67710 0.59532 0.51008 0.43531 0.38219 0.35686 0.35910 0.38269 0.41798 0.45739 0.49940 0.54446 0.59111 0.63552 0.67226 0.69569 0.70129 0.68667 0.65197 0.59961 0.53372 0.45991 0.38583 0.31975 0.26916 0.23682 0.21998 0.21328 0.21058 0.20606 0.19554 0.17745 0.15335 0.12829 0.11061 0.10962 0.13125 0.17282 0.22494 0.27631 0.31622 0.33688 0.33533 0.31479 0.28361 0.25136 0.22585 0.21681 0.23472 0.28456 0.36356 0.46208 0.56578 0.65868 0.72630 0.75821 0.74993 0.70359 0.62734 0.53355 0.43608 0.34905 0.28719 0.26153 0.27643 0.32887 0.40952 0.50471 0.59923 0.67914 0.73453 0.76162 0.76555 0.75866 0.75190 0.74861 0.74697 0.74110 0.72449 0.69315 0.64637 0.58583 0.51574 0.44258 0.37522 0.32633 0.30752 0.32416 0.37318 0.44390 0.52081 0.58695 0.62763 0.63343 0.60206 0.53931 0.45719 0.36963 0.29357 0.24733 0.24325 0.28434 0.36390 0.46737 0.57566 0.66883 0.72994 0.74823 0.72148 0.65658 0.56802 0.47233 0.38296 0.31416 0.27918 0.28623 0.33620 0.42229 0.53126 0.64594 0.74866 0.82485 0.86611 0.87164 0.84688 0.79922 0.73401 0.65711 0.57552 0.49605 0.42306 0.35787 0.30052 0.25183 0.21294 0.18464 0.16704 0.16080 0.16740 0.18821 0.22346 0.27170 0.32964 0.39267 0.45582 0.51499 0.56777 0.61347 0.65140 0.67738 0.68366 0.66411 0.61820 0.55174 0.47572 0.40398 0.35051 0.32662
0.85939 0.86987 0.87626 0.88010 0.88094 0.87493 0.85404 0.81130 0.74756 0.67246 0.59917 0.54218 0.51290 0.51568 0.54737 0.59982 0.66194 0.72115 0.76438 0.77983 0.76101 0.70842 0.62906 0.53486 0.44024 0.35916 0.30224 0.27457 0.27453 0.29477 0.32615 0.36364 0.40844 0.46306 0.52650 0.59357 0.65616 0.70545 0.73377 0.73623 0.71145 0.66160 0.59166 0.50832 0.42003 0.33700 0.26849 0.21820 0.18517 0.16585 0.15544 0.14912 0.14292 0.13442 0.12344 0.11266 0.10763 0.11529 0.14051 0.18093 0.22759 0.27031 0.29997 0.31057 0.30146 0.27782 0.24834 0.22132 0.20421 0.20595 0.23554 0.29627 0.38361 0.48640 0.58937 0.67639 0.73370 0.75258 0.73088 0.67332 0.59015 0.49434 0.39799 0.31399 0.25684 0.23720 0.25884 0.31799 0.40447 0.50388 0.60046 0.68005 0.73275 0.75488 0.75038 0.73100 0.70897 0.68981 0.67300 0.65418 0.62869 0.59344 0.54724 0.49140 0.42964 0.36749 0.31201 0.27350 0.26212 0.28280 0.33258 0.40133 0.47459 0.53691 0.57482 0.57944 0.54934 0.49096 0.41570 0.33683 0.27124 0.23662 0.24408 0.29494 0.38103 0.48675 0.59249 0.67858 0.72922 0.73561 0.69774 0.62444 0.53092 0.43341 0.34587 0.28262 0.25557 0.27096 0.32776 0.41777 0.52698 0.63825 0.73458 0.80264 0.83555 0.83408 0.80507 0.75687 0.69494 0.62482 0.55325 0.48563 0.42440 0.36974 0.32154 0.27960 0.24400 0.21539 0.19474 0.18411 0.18655 0.20464 0.23953 0.29031 0.35390 0.42545 0.49906 0.56868 0.62970 0.67918 0.71447 0.73150 0.72485 0.69055 0.62978 0.54981 0.46259 0.38243 0.32333 0.29627
0.88879 0.88705 0.87911 0.86805 0.85513 0.83878 0.81343 0.77270 0.71642 0.65249 0.59317 0.55164 0.53661 0.54997 0.58760 0.64083 0.69801 0.74693 0.77614 0.77572 0.74088 0.67369 0.58218 0.47891 0.37843 0.29428 0.23607 0.20693 0.20340 0.21783 0.24300 0.27610 0.32021 0.37977 0.45438 0.53830 0.62193 0.69394 0.74394 0.76451 0.75242 0.70901 0.63958 0.55228 0.45670 0.36383 0.28321 0.21936 0.17299 0.14256 0.12518 0.11722 0.11490 0.11502 0.11584 0.11792 0.12443 0.14023 0.16902 0.20858 0.25061 0.28595 0.30659 0.30850 0.29340 0.26786 0.24014 0.21842 0.21001 0.22247 0.26283 0.33240 0.42499 0.52829 0.62654 0.70389 0.74770 0.75112 0.71448 0.64490 0.55431 0.45626 0.36204 0.28314 0.23225 0.21888 0.24581 0.30842 0.39583 0.49320 0.58471 0.65662 0.70004 0.71266 0.69893 0.66947 0.63647 0.60612 0.57871 0.55149 0.52112 0.48502 0.44239 0.39442 0.34411 0.29579 0.25474 0.22844 0.22541 0.25018 0.30022 0.36622 0.43512 0.49269 0.52593 0.52733 0.49712 0.44240 0.37410 0.30523 0.25176 0.22988 0.24893 0.30855 0.39915 0.50435 0.60455 0.68099 0.71955 0.71367 0.66579 0.58662 0.49184 0.39620 0.31331 0.25715 0.23798 0.26005 0.32067 0.41065 0.51581 0.61955 0.70595 0.76323 0.78634 0.77789 0.74611 0.69982 0.64426 0.58520 0.52867 0.47824 0.43467 0.39706 0.36347 0.33187 0.30110 0.27153 0.24504 0.22533 0.21742 0.22567 0.25260 0.29843 0.36089 0.43495 0.51326 0.58836 0.65397 0.70471 0.73634 0.74488 0.72669 0.68065 0.60912 0.52022 0.42651 0.34247 0.28178 0.25475
0.89119 0.87717 0.85586 0.83164 0.80703 0.78176 0.75225 0.71313 0.66377 0.61124 0.56733 0.54306 0.54439 0.57124 0.61787 0.67408 0.72766 0.76698 0.78267 0.76733 0.71834 0.63945 0.53957 0.43143 0.32922 0.24539 0.18714 0.15536 0.14590 0.15229 0.16986 0.19699 0.23777 0.29829 0.37949 0.47525 0.57483 0.66537 0.73452 0.77282 0.77528 0.74208 0.67819 0.59236 0.49551 0.39910 0.31184 0.23887 0.18273 0.14401 0.12158 0.11289 0.11436 0.12213 0.13313 0.14611 0.16241 0.18528 0.21742 0.25657 0.29503 0.32403 0.33665 0.33095 0.31049 0.28232 0.25511 0.23771 0.23728 0.25959 0.30930 0.38563 0.48078 0.58165 0.67246 0.73803 0.76711 0.75479 0.70304 0.62063 0.52125 0.41910 0.32570 0.25196 0.20769 0.20023 0.23100 0.29439 0.37900 0.46991 0.55170 0.61155 0.64199 0.64253 0.61960 0.58382 0.54551 0.50983 0.47739 0.44654 0.41521 0.38193 0.34637 0.30947 0.27332 0.24092 0.21590 0.20308 0.20895 0.23765 0.28720 0.34939 0.41236 0.46214 0.48715 0.48218 0.44934 0.39631 0.33429 0.27594 0.23556 0.22705 0.25757 0.32493 0.41837 0.52108 0.61391 0.67938 0.70540 0.68791 0.63192 0.55015 0.45824 0.36909 0.29486 0.24768 0.23606 0.26237 0.32261 0.40712 0.50231 0.59299 0.66515 0.70886 0.72065 0.70472 0.67063 0.62729 0.58002 0.53502 0.49734 0.46901 0.44902 0.43395 0.41929 0.40090 0.37627 0.34536 0.31087 0.27826 0.25481 0.24706 0.25936 0.29358 0.34813 0.41730 0.49331 0.56813 0.63389 0.68296 0.71046 0.71254 0.68654 0.63369 0.55788 0.46724 0.37409 0.29247 0.23538 0.21225
0.86632 0.84116 0.80835 0.77325 0.73934 0.70698 0.67353 0.63503 0.59142 0.55021 0.52241 0.51676 0.53678 0.57977 0.63752 0.69834 0.74958 0.78033 0.78339 0.75461 0.69392 0.60675 0.50270 0.39414 0.29418 0.21257 0.15384 0.11780 0.10083 0.09884 0.10890 0.12968 0.16560 0.22375 0.30691 0.40949 0.52011 0.62481 0.70986 0.76430 0.78173 0.76117 0.70690 0.62757 0.53465 0.43988 0.35147 0.27467 0.21332 0.16970 0.14433 0.13576 0.14080 0.15517 0.17463 0.19647 0.22056 0.24912 0.28418 0.32329 0.35883 0.38198 0.38708 0.37378 0.34664 0.31375 0.28511 0.27028 0.27627 0.30696 0.36436 0.44550 0.54112 0.63767 0.71978 0.77333 0.78847 0.76104 0.69428 0.59884 0.48985 0.38199 0.28790 0.21836 0.18055 0.17841 0.21171 0.27383 0.35301 0.43462 0.50414 0.55015 0.56695 0.55601 0.52545 0.48680 0.44837 0.41288 0.38068 0.35116 0.32354 0.29728 0.27233 0.24923 0.22910 0.21360 0.20493 0.20588 0.22071 0.25293 0.30112 0.35809 0.41211 0.45010 0.46291 0.44802 0.40932 0.35564 0.29873 0.25078 0.22377 0.22875 0.27031 0.34432 0.43911 0.53787 0.62227 0.67651 0.69082 0.66409 0.60405 0.52454 0.43992 0.36146 0.29971 0.26363 0.25923 0.28727 0.34276 0.41608 0.49472 0.56562 0.61755 0.64341 0.64189 0.61797 0.58141 0.54097 0.50286 0.47380 0.45807 0.45582 0.46330 0.47410 0.48096 0.47751 0.45985 0.42750 0.38385 0.33608 0.29378 0.26595 0.25905 0.27647 0.31662 0.37410 0.44164 0.51084 0.57215 0.61710 0.64060 0.63912 0.61042 0.55697 0.48410 0.39948 0.31444 0.24188 0.19355 0.17767
0.81723 0.78330 0.74162 0.69814 0.65701 0.61912 0.58215 0.54325 0.50439 0.47435 0.46325 0.47753 0.51762 0.57780 0.64753 0.71375 0.76354 0.78682 0.77838 0.73769 0.66768 0.57554 0.47116 0.36607 0.27075 0.19179 0.13206 0.09130 0.06764 0.05908 0.06322 0.07862 0.10925 0.16271 0.24345 0.34743 0.46332 0.57673 0.67318 0.74073 0.77192 0.76494 0.72375 0.65654 0.57399 0.48690 0.40312 0.32807 0.26618 0.22093 0.19418 0.18563 0.19279 0.21152 0.23712 0.26579 0.29597 0.32890 0.36625 0.40522 0.43752 0.45440 0.45103 0.42813 0.39176 0.35176 0.31942 0.30495 0.31524 0.35256 0.41600 0.50040 0.59521 0.68675 0.76048 0.80345 0.80605 0.76480 0.68454 0.57748 0.45921 0.34545 0.25016 0.18398 0.15214 0.15488 0.18965 0.24903 0.32111 0.39190 0.44821 0.48043 0.48491 0.46496 0.42987 0.39090 0.35508 0.32387 0.29682 0.27376 0.25474 0.23977 0.22879 0.22166 0.21844 0.21963 0.22633 0.24012 0.26334 0.29853 0.34447 0.39414 0.43577 0.45817 0.45515 0.42681 0.37922 0.32274 0.26963 0.23141 0.21753 0.23562 0.28749 0.36707 0.46197 0.55581 0.63155 0.67541 0.68065 0.64911 0.59028 0.51774 0.44396 0.37919 0.33224 0.30882 0.31145 0.33912 0.38619 0.44345 0.49993 0.54512 0.57105 0.57412 0.55597 0.52305 0.48415 0.44665 0.41829 0.40634 0.41391 0.43892 0.47478 0.51214 0.54097 0.55276 0.54226 0.50863 0.45590 0.39275 0.33095 0.28184 0.25389 0.25109 0.27241 0.31364 0.36815 0.42696 0.48021 0.51951 0.53970 0.53775 0.51173 0.46427 0.40141 0.33000 0.25969 0.20157 0.16569 0.15873
0.75085 0.71143 0.66399 0.61462 0.56782 0.52508 0.48489 0.44562 0.41163 0.39299 0.39872 0.43268 0.49228 0.56896 0.65009 0.72146 0.77010 0.78680 0.76812 0.71679 0.63932 0.54466 0.44277 0.34334 0.25341 0.17729 0.11713 0.07366 0.04674 0.03493 0.03599 0.04811 0.07411 0.12156 0.19632 0.29644 0.41146 0.52730 0.62945 0.70564 0.74841 0.75611 0.73186 0.68226 0.61604 0.54238 0.46840 0.39973 0.34122 0.29706 0.27009 0.26106 0.26837 0.28847 0.31687 0.34954 0.38414 0.42055 0.45939 0.49707 0.52445 0.53280 0.51817 0.48287 0.43478 0.38536 0.34708 0.33071 0.34299 0.38506 0.45318 0.53987 0.63351 0.72062 0.78773 0.82212 0.81433 0.76211 0.67164 0.55553 0.42983 0.31169 0.21606 0.15328 0.12697 0.13428 0.16982 0.22542 0.28939 0.34874 0.39193 0.41151 0.40598 0.38027 0.34398 0.30682 0.27462 0.24916 0.23013 0.21713 0.21036 0.21002 0.21571 0.22644 0.24093 0.25831 0.27867 0.30325 0.33366 0.37111 0.41385 0.45400 0.48040 0.48434 0.46259 0.41821 0.35966 0.29879 0.24824 0.21876 0.21736 0.24788 0.30915 0.39325 0.48737 0.57595 0.64365 0.67949 0.67968 0.64818 0.59505 0.53242 0.47154 0.42194 0.39060 0.38025 0.38964 0.41559 0.45192 0.49006 0.52087 0.53665 0.53300 0.51007 0.47283 0.42978 0.38919 0.35622 0.33849 0.34341 0.37295 0.42298 0.48448 0.54562 0.59416 0.61976 0.61590 0.58138 0.52091 0.44441 0.36539 0.29702 0.24885 0.22521 0.22627 0.24899 0.28714 0.33234 0.37557 0.40883 0.42685 0.42726 0.40853 0.37288 0.32602 0.27354 0.22278 0.18249 0.16054 0.16165
0.67790 0.63690 0.58703 0.53415 0.48292 0.43544 0.39155 0.35215 0.32346 0.31575 0.33703 0.38887 0.46590 0.55702 0.64772 0.72295 0.76993 0.78050 0.75286 0.69208 0.60822 0.51232 0.41409 0.32058 0.23614 0.16378 0.10591 0.06413 0.03856 0.02774 0.02927 0.04092 0.06391 0.10511 0.17145 0.26326 0.37168 0.48362 0.58533 0.66579 0.71871 0.74202 0.73722 0.70851 0.66226 0.60582 0.54534 0.48632 0.43385 0.39264 0.36624 0.35626 0.36203 0.38086 0.40895 0.44260 0.47931 0.51796 0.55707 0.59101 0.61026 0.60679 0.57804 0.52801 0.46623 0.40559 0.35955 0.33934 0.35153 0.39647 0.46824 0.55694 0.64997 0.73436 0.79721 0.82560 0.81085 0.75180 0.65502 0.53321 0.40350 0.28401 0.19015 0.13176 0.11102 0.12267 0.15859 0.20992 0.26543 0.31349 0.34455 0.35356 0.34116 0.31318 0.27829 0.24399 0.21548 0.19511 0.18351 0.18077 0.18706 0.20221 0.22531 0.25442 0.28695 0.32048 0.35378 0.38740 0.42323 0.46212 0.50063 0.52968 0.53922 0.52314 0.48137 0.41995 0.34965 0.28364 0.23476 0.21291 0.22302 0.26513 0.33489 0.42267 0.51555 0.59918 0.66054 0.69146 0.69043 0.66256 0.61721 0.56524 0.51759 0.48303 0.46672 0.46877 0.48454 0.50822 0.53318 0.55161 0.55630 0.54242 0.50914 0.46049 0.40505 0.35319 0.31223 0.28594 0.28026 0.30104 0.34932 0.41947 0.50064 0.57923 0.64159 0.67648 0.67701 0.64188 0.57600 0.49017 0.39885 0.31596 0.25098 0.20869 0.19028 0.19370 0.21421 0.24497 0.27806 0.30596 0.32335 0.32828 0.32002 0.30019 0.27333 0.24319 0.21431 0.19261 0.18303 0.18869
0.61098 0.57272 0.52385 0.46956 0.41410 0.36035 0.31086 0.27029 0.24651 0.24890 0.28379 0.35082 0.44223 0.54475 0.64232 0.71932 0.76337 0.76762 0.73200 0.66331 0.57383 0.47689 0.38186 0.29364 0.21516 0.14909 0.09778 0.06253 0.04311 0.03766 0.04333 0.05745 0.07968 0.11549 0.17243 0.25289 0.35006 0.45255 0.54891 0.63063 0.69212 0.73040 0.74486 0.73714 0.71142 0.67324 0.62773 0.57985 0.53467 0.49722 0.47161 0.46021 0.46325 0.47900 0.50451 0.53669 0.57311 0.61176 0.64895 0.67660 0.68471 0.66664 0.62165 0.55552 0.47934 0.40708 0.35277 0.32773 0.33835 0.38450 0.45906 0.54993 0.64359 0.72751 0.78861 0.81417 0.79636 0.73439 0.63505 0.51189 0.38268 0.26586 0.17677 0.12446 0.10979 0.12570 0.16192 0.20898 0.25643 0.29422 0.31530 0.31708 0.30152 0.27427 0.24187 0.21013 0.18416 0.16691 0.15998 0.16431 0.18052 0.20844 0.24663 0.29228 0.34159 0.39073 0.43704 0.47985 0.52043 0.55968 0.59308 0.61047 0.60306 0.56729 0.50613 0.42843 0.34701 0.27612 0.22863 0.21352 0.23391 0.28666 0.36409 0.45499 0.54667 0.62637 0.68345 0.71203 0.71207 0.68864 0.65031 0.60788 0.57207 0.55090 0.54792 0.56093 0.58247 0.60414 0.61880 0.61947 0.60079 0.56074 0.50211 0.43288 0.36437 0.30754 0.26831 0.24994 0.25701 0.29257 0.35590 0.44024 0.53369 0.62176 0.69024 0.72787 0.72827 0.69105 0.62191 0.53171 0.43447 0.34316 0.26632 0.20889 0.17321 0.15901 0.16344 0.18129 0.20575 0.22990 0.24841 0.25926 0.26278 0.26031 0.25471 0.24739 0.23975 0.23401 0.23231 0.23707
0.56179 0.53028 0.48497 0.42942 0.36781 0.30517 0.24819 0.20515 0.18509 0.19642 0.24287 0.32200 0.42415 0.53433 0.63539 0.71140 0.75066 0.74777 0.70458 0.62964 0.53619 0.43840 0.34581 0.26274 0.19170 0.13483 0.09380 0.06920 0.06000 0.06362 0.07654 0.09562 0.11955 0.15184 0.19996 0.26789 0.35094 0.44042 0.52857 0.60903 0.67646 0.72669 0.75706 0.76727 0.75961 0.73798 0.70644 0.66927 0.63116 0.59722 0.57201 0.55861 0.55809 0.56965 0.59130 0.62064 0.65513 0.69151 0.72404 0.74330 0.73875 0.70474 0.64261 0.56021 0.47023 0.38756 0.32646 0.29784 0.30725 0.35380 0.43008 0.52317 0.61868 0.70400 0.76553 0.79087 0.77265 0.71083 0.61308 0.49345 0.36975 0.26006 0.17904 0.13481 0.12700 0.14723 0.18388 0.22717 0.26764 0.29746 0.31219 0.31087 0.29574 0.27092 0.24067 0.21008 0.18433 0.16700 0.16056 0.16692 0.18743 0.22235 0.27024 0.32786 0.39063 0.45358 0.51266 0.56579 0.61272 0.65268 0.68059 0.68689 0.66385 0.61026 0.53184 0.43997 0.34928 0.27481 0.22921 0.22036 0.24974 0.31193 0.39625 0.48999 0.58091 0.65784 0.71208 0.73923 0.73971 0.71857 0.68473 0.64915 0.62234 0.61170 0.61943 0.64143 0.66803 0.68861 0.69552 0.68261 0.64626 0.58732 0.51203 0.43111 0.35714 0.30019 0.26528 0.25547 0.27434 0.32255 0.39706 0.49004 0.58892 0.67897 0.74624 0.78023 0.77580 0.73407 0.66206 0.57103 0.47336 0.37912 0.29551 0.22779 0.17950 0.15206 0.14433 0.15261 0.17124 0.19384 0.21515 0.23274 0.24753 0.26122 0.27511 0.28791 0.29739 0.30189 0.30168 0.29960
0.53865 0.51635 0.47450 0.41565 0.34521 0.27166 0.20634 0.16002 0.14246 0.16110 0.21697 0.30504 0.41403 0.52777 0.62848 0.70040 0.73276 0.72179 0.67131 0.59169 0.49705 0.40070 0.31152 0.23444 0.17203 0.12596 0.09721 0.08551 0.08891 0.10389 0.12609 0.15180 0.17939 0.21072 0.25215 0.30839 0.37672 0.45222 0.53057 0.60698 0.67613 0.73278 0.77315 0.79570 0.80120 0.79214 0.77158 0.74299 0.71044 0.67887 0.65326 0.63727 0.63278 0.64001 0.65799 0.68457 0.71650 0.74875 0.77427 0.78338 0.76575 0.71653 0.63861 0.54167 0.44001 0.34948 0.28443 0.25505 0.26561 0.31382 0.39135 0.48570 0.58307 0.67006 0.73242 0.75829 0.74144 0.68291 0.59098 0.47973 0.36643 0.26818 0.19848 0.16424 0.16404 0.18870 0.22601 0.26638 0.30188 0.32732 0.34009 0.33978 0.32756 0.30525 0.27603 0.24454 0.21597 0.19453 0.18357 0.18586 0.20376 0.23841 0.28893 0.35227 0.42361 0.49744 0.56900 0.63451 0.69068 0.73346 0.75670 0.75278 0.71611 0.64744 0.55484 0.45185 0.35459 0.27866 0.23620 0.23380 0.27115 0.34116 0.43130 0.52752 0.61801 0.69260 0.74368 0.76756 0.76537 0.74300 0.70997 0.67750 0.65594 0.65217 0.66742 0.69613 0.72701 0.74788 0.75070 0.73011 0.68431 0.61671 0.53578 0.45345 0.38179 0.32953 0.30161 0.30063 0.32925 0.38665 0.46767 0.56362 0.66178 0.74768 0.80811 0.83379 0.82115 0.77304 0.69789 0.60733 0.51226 0.41990 0.33560 0.26433 0.21019 0.17564 0.16088 0.16359 0.17932 0.20246 0.22784 0.25243 0.27671 0.30307 0.33180 0.35898 0.37851 0.38582 0.38052 0.36705
0.54431 0.53055 0.48981 0.42487 0.34363 0.25895 0.18560 0.13608 0.12030 0.14462 0.20769 0.30162 0.41371 0.52707 0.62384 0.68886 0.71263 0.69320 0.63652 0.55487 0.46288 0.37243 0.29055 0.22161 0.16879 0.13376 0.11692 0.11729 0.13227 0.15782 0.18915 0.22200 0.25427 0.28714 0.32512 0.37228 0.42764 0.48992 0.55729 0.62605 0.69106 0.74711 0.79013 0.81790 0.83019 0.82835 0.81449 0.79121 0.76184 0.73101 0.70399 0.68502 0.67691 0.68114 0.69714 0.72227 0.75178 0.77879 0.79589 0.79394 0.76352 0.70088 0.61021 0.50258 0.39337 0.29904 0.23386 0.20719 0.22180 0.27361 0.35285 0.44674 0.54320 0.62946 0.69135 0.71800 0.70442 0.65244 0.57048 0.47211 0.37354 0.29051 0.23493 0.21227 0.22019 0.24921 0.28739 0.32597 0.35933 0.38436 0.39920 0.40265 0.39391 0.37353 0.34396 0.30940 0.27495 0.24535 0.22473 0.21675 0.22492 0.25169 0.29735 0.35963 0.43448 0.51708 0.60165 0.68153 0.74904 0.79663 0.81706 0.80424 0.75604 0.67540 0.57230 0.46195 0.36152 0.28685 0.24938 0.25420 0.29910 0.37523 0.46919 0.56676 0.65599 0.72681 0.77220 0.78947 0.78088 0.75332 0.71702 0.68355 0.66320 0.66245 0.68180 0.71481 0.74916 0.77190 0.77491 0.75365 0.70793 0.64261 0.56695 0.49235 0.42924 0.38589 0.36717 0.37492 0.41080 0.47318 0.55567 0.64898 0.74083 0.81755 0.86710 0.88168 0.85938 0.80460 0.72698 0.63824 0.54790 0.46164 0.38272 0.31515 0.26276 0.22815 0.21209 0.21319 0.22809 0.25229 0.28130 0.31200 0.34364 0.37794 0.41500 0.44873 0.47011 0.47321 0.45812 0.43054
0.57455 0.56622 0.52333 0.45014 0.35815 0.26369 0.18367 0.13195 0.11803 0.14684 0.21502 0.31204 0.42391 0.53355 0.62354 0.67975 0.69432 0.66759 0.60782 0.52846 0.44347 0.36330 0.29360 0.23686 0.19549 0.17131 0.16466 0.17420 0.19704 0.22909 0.26585 0.30348 0.33994 0.37577 0.41358 0.45518 0.50059 0.55081 0.60556 0.66237 0.71718 0.76550 0.80359 0.82914 0.84147 0.84113 0.82932 0.80773 0.77890 0.74708 0.71781 0.69605 0.68604 0.68989 0.70663 0.73226 0.75998 0.78170 0.79008 0.77722 0.73515 0.66152 0.56177 0.44790 0.33592 0.24242 0.18117 0.16040 0.18122 0.23745 0.31746 0.40828 0.49960 0.58098 0.64030 0.66785 0.65959 0.61776 0.55037 0.46977 0.39040 0.32604 0.28687 0.27698 0.29319 0.32623 0.36525 0.40330 0.43712 0.46469 0.48367 0.49135 0.48577 0.46657 0.43549 0.39616 0.35345 0.31244 0.27789 0.25437 0.24663 0.25885 0.29295 0.34861 0.42398 0.51447 0.61232 0.70693 0.78594 0.83910 0.85828 0.83850 0.78096 0.69156 0.58188 0.46827 0.36849 0.29815 0.26774 0.28068 0.33277 0.41338 0.50843 0.60460 0.69011 0.75455 0.79130 0.79866 0.78013 0.74368 0.70039 0.66220 0.63943 0.63822 0.65853 0.69344 0.73040 0.75648 0.76395 0.74903 0.71222 0.65860 0.59656 0.53573 0.48561 0.45411 0.44586 0.46188 0.50252 0.56574 0.64489 0.73067 0.81174 0.87580 0.91236 0.91512 0.88356 0.82354 0.74553 0.66058 0.57731 0.50079 0.43276 0.37516 0.33114 0.30285 0.29082 0.29389 0.30944 0.33401 0.36427 0.39783 0.43371 0.47183 0.51081 0.54355 0.56002 0.55401 0.52587 0.48228
0.61978 0.61267 0.56484 0.48323 0.38225 0.28028 0.19586 0.14369 0.13248 0.16531 0.23696 0.33482 0.44385 0.54732 0.62874 0.67553 0.68219 0.65146 0.59310 0.52050 0.44611 0.37951 0.32543 0.28461 0.25743 0.24490 0.24705 0.26254 0.28870 0.32197 0.35876 0.39638 0.43378 0.47160 0.51066 0.54936 0.58714 0.62584 0.66644 0.70790 0.74755 0.78210 0.80867 0.82545 0.83176 0.82776 0.81385 0.79075 0.76019 0.72611 0.69436 0.67131 0.66225 0.66909 0.68962 0.71779 0.74501 0.76241 0.76282 0.74008 0.68824 0.60654 0.50157 0.38591 0.27562 0.18690 0.13263 0.11958 0.14645 0.20474 0.28200 0.36638 0.44921 0.52206 0.57650 0.60489 0.60383 0.57548 0.52692 0.46879 0.41321 0.37140 0.35123 0.35520 0.37966 0.41604 0.45546 0.49353 0.52874 0.55917 0.58178 0.59303 0.58998 0.57137 0.53811 0.49322 0.44120 0.38712 0.33617 0.29374 0.26597 0.25901 0.27728 0.32392 0.39876 0.49652 0.60657 0.71383 0.80251 0.86036 0.87884 0.85391 0.78932 0.69427 0.58175 0.46879 0.37321 0.30996 0.28822 0.30958 0.36806 0.45174 0.54612 0.63854 0.71756 0.77294 0.79825 0.79273 0.76114 0.71275 0.65953 0.61389 0.58608 0.58183 0.60064 0.63538 0.67397 0.70444 0.71983 0.71659 0.69490 0.65859 0.61426 0.57033 0.53549 0.51702 0.51924 0.54254 0.58573 0.64640 0.71837 0.79306 0.86063 0.91056 0.93395 0.92573 0.88692 0.82457 0.74905 0.67033 0.59687 0.53345 0.48084 0.43870 0.40832 0.39100 0.38670 0.39407 0.41085 0.43450 0.46298 0.49520 0.53094 0.56953 0.60690 0.63405 0.64119 0.62242 0.57871 0.51780
0.66802 0.65838 0.60467 0.51594 0.40834 0.30177 0.21575 0.16536 0.15836 0.19551 0.26973 0.36693 0.47148 0.56746 0.63988 0.67848 0.68024 0.64964 0.59683 0.53394 0.47230 0.42101 0.38411 0.36093 0.34942 0.34905 0.35925 0.37848 0.40440 0.43433 0.46607 0.49858 0.53233 0.56854 0.60666 0.64223 0.67315 0.70079 0.72671 0.75112 0.77285 0.79000 0.80081 0.80425 0.80011 0.78856 0.76951 0.74274 0.70913 0.67241 0.63930 0.61765 0.61301 0.62633 0.65348 0.68636 0.71500 0.72984 0.72385 0.69284 0.63344 0.54666 0.44016 0.32666 0.22172 0.14063 0.09479 0.08826 0.11740 0.17286 0.24299 0.31791 0.39006 0.45269 0.50068 0.52970 0.53713 0.52466 0.49805 0.46583 0.43745 0.42128 0.42252 0.44171 0.47450 0.51331 0.55190 0.58868 0.62352 0.65493 0.67956 0.69315 0.69189 0.67356 0.63823 0.58821 0.52746 0.46075 0.39337 0.33136 0.28231 0.25466 0.25669 0.29463 0.36892 0.47263 0.59159 0.70751 0.80243 0.86263 0.87970 0.85069 0.78121 0.68328 0.57124 0.46225 0.37364 0.31929 0.30688 0.33674 0.40154 0.48794 0.58125 0.66877 0.73888 0.78236 0.79366 0.77288 0.72607 0.66377 0.59897 0.54448 0.51041 0.50191 0.51785 0.55097 0.59008 0.62513 0.64995 0.66050 0.65565 0.63764 0.61170 0.58504 0.56532 0.55913 0.57042 0.59935 0.64331 0.69924 0.76179 0.82377 0.87725 0.91358 0.92503 0.90807 0.86519 0.80384 0.73345 0.66365 0.60283 0.55551 0.52168 0.49909 0.48646 0.48365 0.48964 0.50266 0.52064 0.54196 0.56597 0.59341 0.62558 0.66189 0.69637 0.71713 0.71332 0.68012 0.61960 0.54062
0.70905 0.69467 0.63507 0.54074 0.42918 0.32115 0.23657 0.19038 0.18937 0.23180 0.30855 0.40450 0.50405 0.59256 0.65717 0.69014 0.69039 0.66323 0.61805 0.56573 0.51725 0.48124 0.46118 0.45525 0.45914 0.47018 0.48702 0.50792 0.53089 0.55426 0.57736 0.60100 0.62729 0.65792 0.69095 0.72050 0.74322 0.75940 0.77052 0.77764 0.78100 0.78016 0.77452 0.76370 0.74769 0.72675 0.70092 0.66959 0.63286 0.59449 0.56252 0.54571 0.54908 0.57198 0.60835 0.64835 0.68069 0.69516 0.68488 0.64742 0.58254 0.49326 0.38818 0.27980 0.18262 0.11034 0.07136 0.06715 0.09314 0.14065 0.20024 0.26367 0.32413 0.37634 0.41765 0.44713 0.46351 0.46792 0.46456 0.45961 0.45971 0.47020 0.49351 0.52813 0.56874 0.60856 0.64405 0.67652 0.70784 0.73748 0.76218 0.77716 0.77762 0.76023 0.72404 0.67061 0.60336 0.52664 0.44545 0.36620 0.29789 0.25193 0.24053 0.27166 0.34520 0.45181 0.57493 0.69453 0.79128 0.85052 0.86441 0.83143 0.75868 0.66012 0.55113 0.44850 0.36857 0.32397 0.32171 0.36086 0.43224 0.52144 0.61371 0.69564 0.75529 0.78457 0.77986 0.74246 0.67962 0.60310 0.52670 0.46359 0.42356 0.41102 0.42396 0.45476 0.49324 0.53170 0.56454 0.58702 0.59686 0.59496 0.58519 0.57347 0.56641 0.56990 0.58757 0.61970 0.66304 0.71347 0.76639 0.81632 0.85735 0.88205 0.88407 0.86152 0.81776 0.75977 0.69667 0.63820 0.59242 0.56343 0.55050 0.54976 0.55736 0.57122 0.58911 0.60862 0.62780 0.64591 0.66422 0.68562 0.71278 0.74498 0.77553 0.79106 0.77836 0.73229 0.65613 0.56012
0.73725 0.71632 0.65079 0.55240 0.43946 0.33307 0.25293 0.21331 0.21997 0.26896 0.34891 0.44396 0.53917 0.62154 0.68055 0.71052 0.71156 0.68875 0.65057 0.60778 0.57113 0.54875 0.54354 0.55270 0.57007 0.59064 0.61219 0.63281 0.65096 0.66600 0.67895 0.69239 0.70944 0.73152 0.75523 0.77479 0.78646 0.78925 0.78481 0.77496 0.76102 0.74386 0.72390 0.70124 0.67575 0.64715 0.61513 0.57948 0.54071 0.50305 0.47566 0.46731 0.48194 0.51724 0.56534 0.61475 0.65303 0.66940 0.65713 0.61503 0.54618 0.45607 0.35415 0.25237 0.16367 0.09866 0.06260 0.05561 0.07351 0.10976 0.15719 0.20844 0.25738 0.29998 0.33538 0.36525 0.39021 0.41082 0.42969 0.45068 0.47760 0.51285 0.55606 0.60343 0.64883 0.68686 0.71645 0.74150 0.76598 0.79093 0.81389 0.82994 0.83348 0.81986 0.78657 0.73375 0.66400 0.58157 0.49139 0.39991 0.31741 0.25862 0.23819 0.26432 0.33556 0.44119 0.56355 0.68167 0.77553 0.83015 0.83845 0.80077 0.72554 0.62783 0.52351 0.42848 0.35788 0.32406 0.33305 0.38196 0.45992 0.55214 0.64322 0.71891 0.76726 0.78123 0.75961 0.70553 0.62742 0.53802 0.45174 0.38176 0.33732 0.32184 0.33228 0.36061 0.39777 0.43791 0.47581 0.50634 0.52639 0.53583 0.53738 0.53590 0.53709 0.54617 0.56658 0.59888 0.64028 0.68574 0.73083 0.77161 0.80345 0.81974 0.81559 0.79029 0.74734 0.69395 0.63965 0.59412 0.56487 0.55534 0.56397 0.58555 0.61400 0.64511 0.67535 0.70160 0.72202 0.73732 0.75066 0.76652 0.78829 0.81525 0.84130 0.85289 0.83510 0.78093 0.69380 0.58475
0.75211 0.72282 0.65107 0.54972 0.43758 0.33555 0.26254 0.23164 0.24725 0.30389 0.38805 0.48325 0.57560 0.65384 0.70929 0.73758 0.73906 0.71857 0.68492 0.64901 0.62142 0.60972 0.61619 0.63713 0.66487 0.69240 0.71658 0.73548 0.74808 0.75510 0.75912 0.76361 0.77165 0.78328 0.79453 0.80062 0.79825 0.78582 0.76472 0.73797 0.70820 0.67740 0.64677 0.61657 0.58622 0.55445 0.51989 0.48208 0.44300 0.40894 0.38954 0.39291 0.42168 0.47185 0.53378 0.59451 0.64057 0.66078 0.64859 0.60365 0.53167 0.44119 0.34264 0.24720 0.16532 0.10400 0.06642 0.05254 0.05990 0.08428 0.11966 0.15946 0.19818 0.23270 0.26343 0.29378 0.32613 0.36073 0.39865 0.44158 0.49074 0.54552 0.60263 0.65662 0.70161 0.73407 0.75478 0.76983 0.78529 0.80372 0.82379 0.84113 0.84977 0.84386 0.81911 0.77364 0.70823 0.62620 0.53291 0.43561 0.34581 0.28044 0.25480 0.27666 0.34397 0.44534 0.56261 0.67457 0.76120 0.80778 0.80803 0.76435 0.68656 0.59026 0.49105 0.40367 0.34299 0.32087 0.34150 0.40000 0.48463 0.57995 0.66928 0.73800 0.77464 0.77336 0.73530 0.66591 0.57474 0.47522 0.38198 0.30782 0.26114 0.24431 0.25360 0.28072 0.31760 0.35892 0.39924 0.43328 0.45762 0.47169 0.47770 0.47988 0.48340 0.49306 0.51214 0.54154 0.57937 0.62104 0.66155 0.69755 0.72436 0.73590 0.72821 0.70133 0.65973 0.61154 0.56662 0.53447 0.52194 0.53161 0.56098 0.60365 0.65178 0.69922 0.74112 0.77376 0.79598 0.80974 0.81951 0.83069 0.84686 0.86806 0.88959 0.89876 0.87994 0.82377 0.73254 0.61725
0.75747 0.71840 0.63998 0.53627 0.42642 0.33083 0.26716 0.24675 0.27224 0.33681 0.42578 0.52222 0.61327 0.68876 0.74100 0.76612 0.76502 0.74339 0.71062 0.67788 0.65562 0.65091 0.66530 0.69422 0.72880 0.76056 0.78563 0.80222 0.81033 0.81211 0.81078 0.80953 0.80998 0.81056 0.80792 0.79854 0.78010 0.75139 0.71363 0.67084 0.62712 0.58563 0.54822 0.51514 0.48503 0.45528 0.42290 0.38640 0.34881 0.31951 0.30980 0.32691 0.37195 0.43912 0.51700 0.59103 0.64664 0.67228 0.66176 0.61561 0.54104 0.44961 0.35318 0.26201 0.18347 0.12187 0.07958 0.05758 0.05508 0.06893 0.09403 0.12444 0.15515 0.18367 0.21117 0.24210 0.28012 0.32529 0.37736 0.43610 0.50010 0.56589 0.62821 0.68108 0.71990 0.74276 0.75177 0.75475 0.75970 0.77093 0.78832 0.80813 0.82434 0.83020 0.81973 0.78877 0.73570 0.66186 0.57193 0.47450 0.38341 0.31638 0.28862 0.30743 0.37021 0.46521 0.57420 0.67632 0.75225 0.78806 0.77835 0.72724 0.64618 0.55088 0.45610 0.37599 0.32555 0.31523 0.34720 0.41529 0.50681 0.60475 0.69145 0.75231 0.77710 0.76149 0.70874 0.62672 0.52595 0.42012 0.32361 0.24852 0.20259 0.18759 0.19866 0.22714 0.26565 0.30809 0.34845 0.38182 0.40464 0.41636 0.41937 0.41802 0.41747 0.42249 0.43641 0.46042 0.49333 0.53178 0.57102 0.60648 0.63198 0.64127 0.63126 0.60338 0.56345 0.52040 0.48444 0.46482 0.46776 0.49491 0.54280 0.60393 0.66915 0.73073 0.78271 0.82122 0.84570 0.85891 0.86603 0.87272 0.88304 0.89838 0.91582 0.92435 0.90842 0.85664 0.76900 0.65553
0.75724 0.70832 0.62355 0.51826 0.41195 0.32437 0.27165 0.26303 0.29896 0.37094 0.46393 0.56158 0.65141 0.72328 0.77000 0.78866 0.78128 0.75455 0.71858 0.68490 0.66393 0.66233 0.68092 0.71422 0.75241 0.78612 0.81115 0.82633 0.83313 0.83433 0.83262 0.82953 0.82431 0.81485 0.79870 0.77370 0.73883 0.69396 0.64071 0.58386 0.52889 0.48004 0.43967 0.40784 0.38209 0.35769 0.32975 0.29640 0.26182 0.23724 0.23651 0.26733 0.32919 0.41437 0.50959 0.59870 0.66593 0.69911 0.69212 0.64627 0.57003 0.47689 0.38053 0.29042 0.21163 0.14731 0.10009 0.07160 0.06165 0.06779 0.08558 0.10961 0.13522 0.16018 0.18603 0.21765 0.25932 0.31093 0.37116 0.43791 0.50742 0.57437 0.63270 0.67705 0.70446 0.71421 0.70935 0.69891 0.69249 0.69609 0.71106 0.73451 0.76048 0.78146 0.78977 0.77893 0.74459 0.68549 0.60466 0.51140 0.42247 0.35714 0.32997 0.34750 0.40655 0.49509 0.59499 0.68583 0.74920 0.77254 0.75181 0.69233 0.60703 0.51168 0.42007 0.34678 0.30632 0.30750 0.35096 0.42901 0.52704 0.62663 0.70956 0.76164 0.77453 0.74592 0.68110 0.58999 0.48383 0.37608 0.28042 0.20871 0.16826 0.15929 0.17559 0.20852 0.25032 0.29361 0.33168 0.36019 0.37649 0.38021 0.37414 0.36321 0.35314 0.34915 0.35490 0.37188 0.39928 0.43439 0.47335 0.51024 0.53643 0.54523 0.53430 0.50628 0.46816 0.42970 0.40138 0.39227 0.40806 0.44965 0.51267 0.58864 0.66744 0.74022 0.80026 0.84366 0.87014 0.88279 0.88697 0.88858 0.89277 0.90237 0.91633 0.92599 0.91650 0.87498 0.79847 0.69505
0.75294 0.69508 0.60555 0.50051 0.39950 0.32145 0.28078 0.28446 0.33052 0.40858 0.50319 0.59971 0.68618 0.75207 0.79047 0.79939 0.78203 0.74627 0.70318 0.66477 0.64142 0.63941 0.65899 0.69380 0.73326 0.76765 0.79299 0.80949 0.81958 0.82558 0.82840 0.82684 0.81865 0.80160 0.77397 0.73496 0.68501 0.62547 0.55890 0.49077 0.42770 0.37479 0.33471 0.30674 0.28630 0.26692 0.24309 0.21362 0.18334 0.16382 0.17036 0.21239 0.28890 0.39061 0.50247 0.60675 0.68653 0.72895 0.72775 0.68456 0.60862 0.51441 0.41686 0.32550 0.24493 0.17816 0.12775 0.09543 0.08131 0.08333 0.09742 0.11853 0.14219 0.16624 0.19211 0.22459 0.26793 0.32173 0.38366 0.45006 0.51575 0.57473 0.62125 0.65137 0.66337 0.65768 0.63795 0.61374 0.59583 0.59164 0.60400 0.63108 0.66724 0.70433 0.73317 0.74486 0.73195 0.69035 0.62181 0.53617 0.45150 0.38904 0.36377 0.38134 0.43790 0.52122 0.61334 0.69434 0.74653 0.75831 0.72694 0.65924 0.56922 0.47273 0.38340 0.31661 0.28617 0.29942 0.35490 0.44258 0.54607 0.64594 0.72382 0.76627 0.76716 0.72693 0.65286 0.55643 0.44917 0.34383 0.25391 0.19114 0.16123 0.16242 0.18759 0.22780 0.27378 0.31710 0.35055 0.37037 0.37559 0.36670 0.34714 0.32260 0.29960 0.28399 0.27988 0.28903 0.31073 0.34242 0.38052 0.41871 0.44709 0.45760 0.44772 0.42068 0.38425 0.34896 0.32585 0.32408 0.34902 0.40092 0.47484 0.56151 0.65006 0.73089 0.79672 0.84343 0.87068 0.88152 0.88142 0.87707 0.87479 0.87884 0.88993 0.90208 0.90177 0.87507 0.81605 0.73001
0.74483 0.67902 0.58640 0.48357 0.38971 0.32249 0.29434 0.30978 0.36453 0.44683 0.54137 0.63503 0.71632 0.77460 0.80280 0.79945 0.76885 0.72018 0.66577 0.61859 0.58944 0.58421 0.60232 0.63672 0.67622 0.71125 0.73879 0.76044 0.77861 0.79396 0.80482 0.80808 0.80040 0.77920 0.74334 0.69326 0.63095 0.55933 0.48228 0.40598 0.33787 0.28363 0.24548 0.22074 0.20344 0.18674 0.16585 0.14075 0.11580 0.10179 0.11414 0.16390 0.25074 0.36454 0.48918 0.60587 0.69681 0.74858 0.75473 0.71702 0.64495 0.55312 0.45624 0.36427 0.28264 0.21475 0.16324 0.12986 0.11481 0.11618 0.13010 0.15160 0.17627 0.20188 0.22946 0.26314 0.30653 0.35860 0.41623 0.47494 0.52922 0.57342 0.60300 0.61529 0.60974 0.58793 0.55389 0.51686 0.48817 0.47631 0.48539 0.51482 0.55948 0.61084 0.65828 0.69024 0.69662 0.67146 0.61613 0.54023 0.46156 0.40210 0.37815 0.39538 0.44966 0.52868 0.61473 0.68842 0.73271 0.73665 0.69811 0.62456 0.53092 0.43345 0.34694 0.28766 0.26838 0.29424 0.36129 0.45738 0.56465 0.66309 0.73458 0.76673 0.75553 0.70471 0.62381 0.52533 0.42060 0.32192 0.24308 0.19443 0.17946 0.19472 0.23230 0.28158 0.33169 0.37357 0.40004 0.40811 0.39870 0.37388 0.33795 0.29756 0.26003 0.23195 0.21782 0.21947 0.23623 0.26547 0.30332 0.34278 0.37392 0.38808 0.38156 0.35703 0.32236 0.28849 0.26701 0.26773 0.29649 0.35360 0.43361 0.52667 0.62130 0.70723 0.77647 0.82442 0.85040 0.85747 0.85158 0.84032 0.83120 0.82993 0.83863 0.85388 0.86411 0.85488 0.81759 0.75426
0.73262 0.65992 0.56568 0.46657 0.38096 0.32490 0.30866 0.33467 0.39698 0.48285 0.57757 0.66865 0.74423 0.79418 0.81155 0.79503 0.74962 0.68563 0.61665 0.55684 0.51785 0.50601 0.52040 0.55307 0.59225 0.62888 0.66131 0.69164 0.72118 0.74867 0.77052 0.78198 0.77854 0.75717 0.71703 0.65961 0.58836 0.50782 0.42324 0.34161 0.27089 0.21662 0.17925 0.15485 0.13735 0.12085 0.10234 0.08207 0.06327 0.05505 0.07195 0.12578 0.21779 0.33783 0.46942 0.59347 0.69195 0.75140 0.76541 0.73576 0.67175 0.58719 0.49547 0.40641 0.32637 0.25974 0.20957 0.17758 0.16390 0.16674 0.18249 0.20651 0.23434 0.26340 0.29411 0.32950 0.37179 0.41910 0.46795 0.51392 0.55210 0.57800 0.58833 0.58167 0.55865 0.52191 0.47576 0.42828 0.39047 0.37134 0.37608 0.40533 0.45473 0.51551 0.57550 0.62136 0.64148 0.62938 0.58644 0.52097 0.44932 0.39294 0.36914 0.38444 0.43501 0.50906 0.58957 0.65787 0.69763 0.69839 0.65822 0.58445 0.49170 0.39642 0.31554 0.26568 0.25813 0.29578 0.37254 0.47460 0.58319 0.67813 0.74186 0.76323 0.74008 0.67932 0.59314 0.49479 0.39515 0.30703 0.24357 0.21302 0.21673 0.24974 0.30203 0.36093 0.41420 0.45261 0.46980 0.46388 0.43774 0.39542 0.34229 0.28589 0.23441 0.19487 0.17190 0.16755 0.18121 0.20991 0.24921 0.29130 0.32601 0.34489 0.34332 0.32277 0.29022 0.25636 0.23311 0.23104 0.25706 0.31261 0.39294 0.48796 0.58529 0.67363 0.74396 0.79095 0.81362 0.81520 0.80226 0.78334 0.76718 0.76074 0.76741 0.78547 0.80584 0.81428 0.80007 0.76198
0.71595 0.63742 0.54282 0.44842 0.37137 0.32592 0.32058 0.35613 0.42515 0.51456 0.61063 0.70041 0.77134 0.81355 0.82095 0.79234 0.73301 0.65395 0.56965 0.49530 0.44350 0.42137 0.42856 0.45726 0.49551 0.53462 0.57371 0.61455 0.65726 0.69898 0.73437 0.75709 0.76146 0.74387 0.70354 0.64268 0.56599 0.47955 0.38998 0.30505 0.23288 0.17761 0.13824 0.11080 0.09035 0.07313 0.05719 0.04227 0.03029 0.02798 0.04816 0.10263 0.19440 0.31426 0.44616 0.57149 0.67280 0.73712 0.75829 0.73815 0.68549 0.61244 0.53079 0.45001 0.37671 0.31560 0.27009 0.24205 0.23151 0.23670 0.25440 0.28055 0.31135 0.34427 0.37881 0.41626 0.45677 0.49757 0.53538 0.56653 0.58728 0.59443 0.58606 0.56197 0.52389 0.47524 0.42057 0.36628 0.32190 0.29626 0.29526 0.32082 0.36938 0.43199 0.49584 0.54706 0.57402 0.57087 0.53823 0.48260 0.41813 0.36477 0.33996 0.35157 0.39657 0.46418 0.53859 0.60237 0.64018 0.64218 0.60666 0.54057 0.45683 0.37027 0.29915 0.26046 0.26407 0.31106 0.39374 0.49736 0.60297 0.69099 0.74499 0.75511 0.72065 0.65056 0.55981 0.46238 0.36944 0.29439 0.24904 0.23954 0.26502 0.31783 0.38540 0.45317 0.50789 0.54046 0.54620 0.52492 0.48151 0.42208 0.35308 0.28286 0.21999 0.17143 0.14210 0.13437 0.14754 0.17808 0.22102 0.26792 0.30807 0.33309 0.33779 0.32214 0.29192 0.25701 0.22926 0.21989 0.23710 0.28408 0.35784 0.44949 0.54619 0.63463 0.70416 0.74844 0.76617 0.76088 0.73991 0.71287 0.68962 0.67816 0.68280 0.70275 0.73106 0.75468 0.76175 0.74841
0.69478 0.61144 0.51740 0.42811 0.35922 0.32346 0.32778 0.37136 0.44598 0.53930 0.63780 0.72775 0.79598 0.83257 0.83250 0.79490 0.72503 0.63396 0.53656 0.44850 0.38305 0.34813 0.34432 0.36506 0.39989 0.44109 0.48729 0.53932 0.59600 0.65296 0.70336 0.73948 0.75452 0.74412 0.70729 0.64659 0.56755 0.47760 0.38468 0.29737 0.22316 0.16458 0.12039 0.08774 0.06390 0.04657 0.03390 0.02492 0.02022 0.02386 0.04615 0.09837 0.18493 0.29840 0.42395 0.54430 0.64325 0.70860 0.73489 0.72427 0.68456 0.62571 0.55829 0.49109 0.43038 0.38055 0.34451 0.32376 0.31823 0.32626 0.34507 0.37148 0.40275 0.43721 0.47427 0.51331 0.55155 0.58545 0.61222 0.62925 0.63410 0.62494 0.60112 0.56360 0.51493 0.45895 0.40023 0.34357 0.29583 0.26474 0.25655 0.27430 0.31529 0.37111 0.42958 0.47776 0.50547 0.50708 0.48194 0.43475 0.37691 0.32618 0.29941 0.30562 0.34313 0.40262 0.46996 0.52941 0.56712 0.57477 0.55112 0.50150 0.43539 0.36488 0.30772 0.28118 0.29427 0.34682 0.43029 0.52971 0.62669 0.70293 0.74374 0.74117 0.69599 0.61797 0.52319 0.42666 0.34104 0.28019 0.25452 0.26771 0.31576 0.38806 0.46963 0.54434 0.59823 0.62262 0.61504 0.57787 0.51812 0.44378 0.36228 0.28227 0.21182 0.15789 0.12577 0.11796 0.13336 0.16813 0.21684 0.27079 0.31866 0.35173 0.36444 0.35512 0.32790 0.29159 0.25766 0.23781 0.24159 0.27445 0.33610 0.41959 0.51236 0.59887 0.66604 0.70623 0.71761 0.70399 0.67361 0.63729 0.60613 0.58917 0.59126 0.61176 0.64454 0.67856 0.70224 0.71056
0.66947 0.58219 0.48920 0.40482 0.34327 0.31577 0.32770 0.37722 0.45647 0.55383 0.65519 0.74639 0.81404 0.84816 0.84443 0.80266 0.72761 0.62990 0.52400 0.42544 0.34762 0.29912 0.28205 0.29183 0.32062 0.36218 0.41417 0.47604 0.54536 0.61648 0.68137 0.73124 0.75831 0.75739 0.72694 0.66935 0.59051 0.49872 0.40322 0.31329 0.23544 0.17158 0.12145 0.08413 0.05828 0.04213 0.03370 0.03124 0.03403 0.04365 0.06731 0.11516 0.19272 0.29465 0.40809 0.51776 0.60888 0.67069 0.69905 0.69635 0.66888 0.62507 0.57455 0.52509 0.48201 0.44864 0.42686 0.41725 0.41914 0.43081 0.44996 0.47446 0.50297 0.53515 0.57093 0.60857 0.64295 0.66974 0.68677 0.69250 0.68568 0.66556 0.63241 0.58779 0.53469 0.47706 0.41909 0.36441 0.31670 0.28149 0.26487 0.27085 0.29798 0.33946 0.38511 0.42437 0.44827 0.45084 0.43033 0.38974 0.33764 0.28901 0.25951 0.25889 0.28713 0.33673 0.39569 0.45060 0.49050 0.50875 0.50348 0.47717 0.43505 0.38609 0.34601 0.33138 0.35124 0.40475 0.48324 0.57231 0.65483 0.71433 0.73834 0.72112 0.66523 0.58114 0.48415 0.38912 0.31124 0.26481 0.25849 0.29313 0.36168 0.45075 0.54328 0.62190 0.67238 0.68667 0.66455 0.61177 0.53780 0.45217 0.36291 0.27789 0.20447 0.14959 0.11858 0.11368 0.13370 0.17465 0.23072 0.29331 0.35084 0.39392 0.41656 0.41548 0.39285 0.35605 0.31589 0.28448 0.27335 0.29052 0.33791 0.41023 0.49563 0.57748 0.64001 0.67417 0.67767 0.65439 0.61323 0.56610 0.52530 0.50088 0.49831 0.51707 0.55071 0.58928 0.62333 0.64841
